-2.09761 0.094284 -1.78624 0.205556 -0.646623 0.734592
-2.04124 0.070518 -1.82293 0.412199 -0.599756 0.685846
-2.01816 -0.035568 -2.41356 -0.131136 0.891667 -0.433282
-2.04955 -0.020193 -2.37242 -0.120779 0.890707 -0.43824
-2.00283 0.029442 -2.28442 -0.07138 0.946236 -0.315503
-2.03664 0.167118 -2.04792 -0.03054 0.847662 -0.529657
-2.06457 0.174795 -2.03519 -0.018136 0.838084 -0.54524
-2.00283 0.029442 -2.28442 -0.899767 0.396257 -0.182754
-2.03041 0.061101 -2.07996 -0.835933 0.395002 -0.381037
-1.9885 0.162207 -2.0671 -0.835933 0.395002 -0.381037
-1.99153 0.293715 -1.74611 -0.610795 0.271338 0.743845
-2.04291 0.16335 -1.74075 -0.610795 0.271338 0.743845
-1.95566 0.291672 -1.71591 -0.610795 0.271338 0.743845
-2.11959 -0.224172 4.89812 -0.91919 0.068821 0.387754
-2.13835 -0.519987 4.79831 -0.95898 -0.054033 0.278275
-2.00538 -0.509268 5.09738 -0.744134 0.013998 0.667884
-2.04124 0.070518 -1.82293 0.412199 -0.599756 0.685846
-1.95566 0.291672 -1.71591 0.599356 -0.524536 0.604677
-2.03218 0.053778 -1.82052 -0.11188 -0.992702 0.044997
-2.03509 0.046575 -1.98665 -0.11188 -0.992702 0.044997
-2.00283 0.029442 -2.28442 -0.11188 -0.992702 0.044997
-2.12995 0.099504 -1.52838 0.278767 0.066013 0.958087
-2.08334 0.136452 -1.54449 0.278994 0.0915 0.955924
-2.22136 0.100941 -1.50188 0.273849 0.08503 0.958007
-2.03218 0.053778 -1.82052 0.031865 0.998223 -0.05035
-2.00283 0.029442 -2.28442 -0.07138 0.946236 -0.315503
-2.03143 0.030858 -2.27445 -0.040218 0.966708 -0.252701
-2.04955 -0.020193 -2.37242 -0.120779 0.890707 -0.43824
-2.03143 0.030858 -2.27445 -0.040218 0.966708 -0.252701
-2.03041 0.061101 -2.07996 -0.835933 0.395002 -0.381037
-2.04133 0.085545 -2.04932 -0.735825 0.376608 -0.562786
-1.9885 0.162207 -2.0671 -0.835933 0.395002 -0.381037
-1.14848 -1.42247 -5.77984 0.343125 0.315312 -0.884785
-1.34686 -1.47126 -5.87416 0.446127 0.190103 -0.874547
-1.20658 -1.3478 -5.77576 0.484062 0.079694 -0.871397
-0.487536 -1.24442 -6.14425 -0.849621 -0.080286 -0.521247
-0.483744 -0.954447 -6.1414 -0.874744 0.016199 -0.484314
-0.00015 -1.50501 -6.09202 -0.023027 0.355284 -0.934475
-0.485799 -1.4989 -6.02728 -0.101547 0.444166 -0.890171
-0.506256 -1.44313 -5.99944 -0.115487 0.40945 -0.904994
1.27935 -0.766209 -5.66344 0.188554 -0.243037 -0.951515
0.87516 -0.617028 -5.78164 0.152906 -0.268159 -0.951163
1.26962 -0.619872 -5.69077 0.22028 -0.164909 -0.961396
1.8193 0.03738 -2.7203 0.183814 0.982881 -0.012529
1.97811 -0.025398 -2.59562 0.010994 0.97656 0.214963
1.89836 -1.84348 -2.53162 0.083851 -0.996438 0.008958
1.77124 -1.82739 0.447444 0.083851 -0.996438 0.008958
1.77801 -1.85562 -2.75586 0.083851 -0.996438 0.008958
2.00273 0.029442 -2.28452 0.960822 -0.262471 -0.089049
2.03033 0.061101 -2.08006 0.954503 -0.283645 -0.092029
2.03501 0.046575 -1.98676 0.9652 -0.257427 -0.046051
2.04117 0.070518 -1.82304 0.721765 -0.062891 0.689275
1.95559 0.291672 -1.71601 0.841546 0.066201 0.536113
1.82043 0.607719 -1.54288 0.721765 -0.062891 0.689275
2.2566 0.334755 -1.8219 0.272497 0.768851 -0.578458
2.2637 0.214002 -1.90895 0.457027 0.537683 -0.708536
2.06448 0.174795 -2.0353 0.233998 0.66507 -0.709174
1.98841 0.162207 -2.06721 0.037538 0.853614 -0.519552
1.96776 0.239079 -1.93531 -0.077075 0.899926 -0.429177
2.01666 0.338571 -1.58452 -0.952243 0.3046 0.021273
1.99146 0.293715 -1.74622 0.410087 0.808476 0.422132
1.99264 0.302052 -1.77146 0.406249 0.861834 0.30365
1.94925 0.31047 -1.7373 0.410087 0.808476 0.422132
2.04126 0.085545 -2.04942 0.49753 0.002808 -0.867442
2.03656 0.167118 -2.04803 0.386148 0.038003 -0.921654
2.06448 0.174795 -2.0353 0.596819 -0.154281 -0.787404
0.494427 -1.27714 -6.1147 0.085088 -0.743816 -0.662946
0.487236 -1.24442 -6.14428 0.085705 -0.657671 -0.748414
0.871896 -1.25568 -6.09034 0.109296 -0.769395 -0.629353
1.2076 -1.29028 -5.78416 0.227413 -0.144749 -0.96298
1.2063 -1.3478 -5.77582 0.229133 -0.135832 -0.963871
1.2063 -1.3478 -5.77582 0.229133 -0.135832 -0.963871
1.1482 -1.42247 -5.7799 0.239866 -0.106969 -0.964895
1.85422 -0.775425 -5.50672 -0.045148 0.886728 -0.460081
1.87309 -0.730689 -5.41408 -0.430906 0.84386 -0.31972
1.9173 -0.70038 -5.42374 -0.584039 0.771155 -0.253413
0.485505 -1.4989 -6.02728 0.130045 -0.289981 -0.948156
-0.00015 -1.50501 -6.09202 -0.038609 -0.292247 -0.955563
1.98841 0.162207 -2.06721 0.366552 0.037012 -0.929661
1.95559 0.291672 -1.71601 0.610866 0.271349 0.743783
2.04284 0.16335 -1.74085 0.610866 0.271349 0.743783
1.99146 0.293715 -1.74622 0.610866 0.271349 0.743783
-1.94932 0.31047 -1.7372 -0.410014 0.808528 0.422103
-1.99271 0.302052 -1.77136 -0.406185 0.861888 0.303583
-2.09658 -1.63962 -4.80214 -0.943982 -0.311118 -0.110016
-2.06128 -1.76644 -2.79328 -0.852758 -0.522058 -0.01612
-1.85807 -0.505101 5.1971 -0.427982 0.028839 0.903327
-1.60836 -0.506184 5.27759 -0.235879 -0.00875 0.971743
-1.74124 0.129081 5.22338 -0.3392 0.2194 0.914771
-1.33495 -0.023397 5.34404 -0.210186 -0.007478 0.977633
-1.42241 0.131721 5.31158 -0.266895 0.185141 0.945775
-1.35799 0.175863 5.30708 -0.161771 0.343304 0.925188
-1.74074 0.20571 5.18948 -0.366208 0.260358 0.893368
-1.85507 0.180822 5.13515 -0.587022 0.304692 0.750046
-1.86499 0.098586 5.16935 -0.569853 0.208369 0.79489
-1.85807 -0.505101 5.1971 -0.427982 0.028839 0.903327
-1.25892 -0.505767 5.32055 -0.100016 -0.056032 0.993407
0.000156 0.017703 5.4599 -0.030108 0.008479 0.999511
-1.36013 0.069933 5.33696 -0.162501 0.126606 0.978552
0.000156 0.120171 5.45276 -0.000552 0.170738 0.985316
0.000153 0.226782 5.42204 -0.000519 0.309813 0.950797
-1.35642 0.251106 5.27702 -0.170688 0.200405 0.96473
0.000156 -0.505212 5.43944 0.028489 -0.047177 0.99848
1.33526 -0.023397 5.34398 0.088684 0.004903 0.996048
1.25923 -0.505767 5.32052 0.093817 -0.06311 0.993587
1.3583 0.175863 5.30699 0.147468 0.343037 0.927674
0.000153 0.304128 5.3951 0.000798 0.177286 0.984159
-1.36648 0.384927 5.27486 -0.142693 0.003452 0.989761
-1.74263 0.311655 5.17655 -0.33887 0.069041 0.938297
-1.85228 0.276309 5.11343 -0.621437 0.323208 0.71369
1.42271 0.131721 5.31152 0.245585 0.200819 0.948346
1.74154 0.129081 5.22332 0.31405 0.270136 0.910164
1.35672 0.251106 5.27696 0.167021 0.194373 0.966604
0.000153 0.433791 5.39456 0.029149 0.005946 0.999557
1.60866 -0.506184 5.2775 0.287528 0.011922 0.957698
1.36678 0.384927 5.2748 0.194709 0.040286 0.980033
1.74103 0.20571 5.18936 0.356727 0.231023 0.905193
1.85536 0.180822 5.13506 0.610084 0.275823 0.742778
1.85257 0.276309 5.11331 0.638794 0.409229 0.651517
1.74252 0.341586 5.1512 0.46931 0.587442 0.659288
1.86529 0.098586 5.16926 0.490749 0.200849 0.847836
1.96468 0.047205 5.09816 0.779569 0.214959 0.588273
1.9435 0.158751 5.05694 0.811615 0.314097 0.492569
1.9303 0.249375 5.02652 0.788318 0.445438 0.424428
1.85135 0.300675 5.09051 0.596301 0.733971 0.325133
1.85836 -0.505101 5.19698 0.491395 0.037186 0.870143
-0.491376 -1.28899 -5.91712 -0.128845 -0.174316 -0.976224
-1.14848 -1.42247 -5.77984 -0.214032 -0.020396 -0.976614
-1.9885 0.162207 -2.0671 0.074929 0.856387 -0.510869
-2.00283 0.029442 -2.28442 0.253544 0.817935 -0.516428
-2.4241 0.142845 -1.44817 -0.401693 -0.915671 0.013769
-2.43827 0.166239 -1.67754 -0.415108 -0.897228 -0.150556
-2.35944 0.123993 -1.46562 -0.232608 -0.972336 0.021338
-2.29896 0.111225 -1.62429 -0.168856 -0.984453 -0.048376
-2.23755 0.100857 -1.56097 -0.096169 -0.995125 0.021871
-2.22136 0.100941 -1.50188 -0.110523 -0.993481 0.027942
-2.12995 0.099504 -1.52838 -0.034706 -0.996713 0.073197
-2.20437 0.106809 -1.79892 -0.235283 -0.965648 -0.110295
-2.17748 0.096453 -1.72651 -0.108059 -0.993172 -0.043952
-2.14164 0.09387 -1.57253 0.104819 -0.994154 0.025894
-2.12995 0.099504 -1.52838 -0.034706 -0.996713 0.073197
-2.24401 0.133203 -1.86558 -0.334707 -0.921446 -0.197254
-2.25667 0.334755 -1.82178 -0.175495 0.811593 -0.557242
-2.26378 0.214002 -1.90883 -0.48595 0.518955 -0.703234
-2.06457 0.174795 -2.03519 -0.234041 0.665063 -0.709165
-2.04098 0.274638 -1.92361 0.326612 0.800571 -0.502405
-2.0108 0.324363 -1.7731 0.746383 0.649718 -0.144149
-2.01233 0.248151 -1.92417 0.645138 0.627943 -0.435298
-2.06457 0.174795 -2.03519 0.521919 0.577875 -0.627424
-1.99271 0.302052 -1.77136 0.777558 0.625176 -0.067511
-1.99153 0.293715 -1.74611 0.803555 0.587808 0.093709
-2.00723 0.316785 -1.69735 0.900078 0.435502 -0.014059
-2.03159 0.36558 -1.70059 0.894955 0.443789 -0.045899
-2.03485 0.395706 -1.59087 0.92679 0.37379 -0.036636
-2.01672 0.338571 -1.58441 0.952244 0.304599 0.021248
-2.53055 0.26193 -1.5536 -0.88472 -0.439244 -0.155997
-2.47842 0.250548 -1.70407 -0.758958 -0.480686 -0.43923
-2.43827 0.166239 -1.67754 -0.748901 -0.495267 -0.440294
-2.24401 0.133203 -1.86558 -0.643414 -0.482626 -0.594214
-2.26378 0.214002 -1.90883 -0.624526 -0.3582 -0.694018
-2.06851 0.10161 -2.02443 -0.64096 -0.218691 -0.735761
-2.06457 0.174795 -2.03519 -0.555719 -0.041027 -0.830357
-2.18351 -1.54548 -2.82416 -0.997904 0.061034 -0.021499
-2.19157 -1.53816 -2.57093 -0.984528 0.172588 -0.030302
-2.18172 -1.48452 -2.58543 -0.998221 0.054821 -0.023437
-2.1764 -1.49532 -2.83022 -0.997053 -0.075444 -0.013923
-2.19801 -1.21156 -4.74328 -0.986077 -0.148698 -0.074437
-2.1131 -1.48404 -4.78846 -0.984844 -0.0922119 -0.146895
-2.27828 -1.00428 -2.66901 -0.98689 -0.161006 -0.011181
-2.27462 -1.01446 -2.95681 -0.991965 -0.125062 -0.019102
-2.26298 -0.649875 -4.35646 -0.999422 -0.019961 -0.027526
-2.2378 -1.40365 0.407601 -0.999831 0.017097 -0.006767
-2.32961 -0.928935 0.360792 -0.991993 -0.126288 0.000897
-2.30704 -0.673149 -2.67823 -0.998651 0.048644 -0.018147
-2.29771 -0.686256 -3.0833 -0.999157 0.026776 -0.031115
-2.29566 -0.744936 -3.16027 -0.999879 0.015562 0.000727
-2.25052 -1.45453 0.413421 -0.992803 -0.119744 -0.002054
-2.23819 -1.38378 2.28819 -0.998458 -0.045743 0.031438
-2.22531 -1.31958 2.29706 -0.999852 0.014029 -0.009921
-2.30507 -0.878196 2.45015 -0.991208 -0.13051 0.021759
-2.34934 -0.559452 0.352347 -0.997756 0.066901 -0.00276
-2.19157 -1.53816 -2.57093 -0.984528 0.172588 -0.030302
-1.34429 -0.616992 5.57279 -0.0915269 0.829375 0.551145
-1.635 -0.558993 5.42579 -0.118122 0.890333 0.439721
-1.65199 -0.618159 5.51087 -0.221939 0.672766 0.705782
-1.91231 -0.560121 5.32751 -0.286877 0.854808 0.432441
-1.94059 -0.618675 5.39348 -0.546038 0.508859 0.665511
-1.67077 -0.799347 5.59115 -0.286641 0.195973 0.93778
-1.34429 -0.616992 5.57279 -0.142321 0.399943 0.905423
-1.60836 -0.506184 5.27759 -0.066135 0.947396 0.313156
0.000162 -0.608649 5.68082 -0.016 0.840003 0.542346
0.000156 -0.505212 5.43944 -0.00903799 0.951769 0.306681
1.25923 -0.505767 5.32052 0.038284 0.950941 0.306994
1.63531 -0.558993 5.4257 0.127312 0.888732 0.440395
1.60866 -0.506184 5.2775 0.0884679 0.939566 0.330739
1.91261 -0.560121 5.32739 0.267411 0.876994 0.399216
1.85836 -0.505101 5.19698 0.167969 0.93135 0.32307
1.34461 -0.616992 5.5727 0.069838 0.835114 0.545625
1.65231 -0.618159 5.51078 0.147234 0.82693 0.542687
1.94089 -0.618675 5.39336 0.610796 0.562302 0.557445
2.00567 -0.509268 5.09732 0.401604 0.867892 0.292364
2.07179 -0.625035 5.19836 0.915487 0.191047 0.354097
2.1729 -0.584943 4.81043 0.922981 0.328666 0.20021
2.13863 -0.519987 4.79822 0.793404 0.583478 0.17339
2.30212 -0.607152 3.91166 0.91909 0.380309 0.103145
2.28001 -0.532803 3.72236 0.847724 0.519899 0.105208
2.08239 -0.806289 5.22596 0.9277 -0.02003 0.372788
2.18245 -0.818499 4.82459 0.976651 -0.04823 0.209348
2.1772 -0.635841 4.81358 0.973183 0.068486 0.219601
2.28285 -0.655641 4.23512 0.989015 0.057418 0.136208
2.29595 -0.739233 4.11974 0.991904 -0.018016 0.125708
2.25291 -0.903381 4.26362 0.956366 -0.290641 -0.029874
1.96098 -0.803397 5.44727 0.890144 -0.019672 0.455254
2.25611 -0.822303 4.37774 0.974448 -0.180858 0.133198
2.16273 -1.14337 4.3874 0.984888 -0.169643 0.034869
2.29595 -0.739233 4.11974 0.831768 -0.478271 -0.281815
2.11291 -1.1327 4.80803 0.980553 -0.099227 0.16932
2.166 -1.19842 4.40243 0.990344 -0.111924 0.081807
2.22839 -1.31348 2.4349 0.999596 -0.012682 0.025451
2.30407 -0.499263 3.43385 0.99623 -0.065877 0.056442
2.28483 -0.246216 3.76928 0.994398 0.055728 0.089811
2.13863 -0.519987 4.79822 0.969169 -0.050125 0.241243
2.02901 -1.13104 5.20271 0.941542 -0.09632 0.322834
2.11578 -1.18431 4.80872 0.964131 -0.200246 0.174222
2.08306 -1.37443 4.44236 0.800419 -0.588444 0.114292
2.14578 -1.61553 2.39492 0.878163 -0.474067 0.063954
2.24236 -1.37489 2.42121 0.992614 -0.117916 0.028509
1.96098 -0.803397 5.44727 0.890144 -0.019672 0.455254
-1.76456 0.375102 4.83383 -0.270464 0.958062 0.094695
-1.74223 0.341586 5.15132 -0.318279 0.940161 0.121639
-1.37025 0.416913 5.24123 -0.156513 0.982686 0.099156
-1.37137 0.446316 4.91519 -0.096133 0.992637 0.073686
-1.36513 0.493608 4.09163 -0.154561 0.986552 0.053161
-1.78076 0.411969 4.202 -0.290878 0.955421 0.050609
-1.86825 0.339837 4.80638 -0.471591 0.875079 0.108803
-1.74223 0.341586 5.15132 -0.318279 0.940161 0.121639
0.000153 0.472764 5.3612 -0.016227 0.995755 0.090598
0.000144 0.503559 5.02391 0.01607 0.997073 0.074752
0.000126 0.547572 4.2899 -0.015329 0.998147 0.058886
1.37055 0.416913 5.24114 0.105454 0.990344 0.089988
1.37166 0.446316 4.9151 0.140914 0.986651 0.08163
1.36537 0.493608 4.09154 0.136652 0.989129 0.054309
1.74252 0.341586 5.1512 0.298111 0.946994 0.119716
0.000153 0.433791 5.39456 -0.029925 0.673825 0.738285
0.000153 0.472764 5.3612 0.029017 0.673881 0.73827
-0.854817 -1.49632 -5.97778 -0.142131 0.505095 -0.85128
-0.490983 -1.60621 -6.09373 -0.075761 0.527579 -0.846121
-0.00015 -1.61376 -6.11809 -0.038899 0.335114 -0.941374
-0.00015 -0.869901 -6.10381 -0.020208 0.54278 -0.839632
-0.00015 -0.952191 -6.15382 -1.5e-005 0.503574 -0.863952
0.873432 -0.923109 -6.0712 0.112048 0.550408 -0.827343
0.871881 -0.864549 -6.02992 0.137677 0.545045 -0.827025
1.37228 -0.862452 -5.90308 0.276783 0.507997 -0.815678
-1.33883 -0.782511 -5.69941 -0.27125 0.17382 -0.946684
-1.4726 -0.823407 -5.65906 -0.3799 0.123402 -0.916759
-1.37418 -0.757863 -5.68549 -0.243217 0.188481 -0.951483
-1.29294 -0.608541 -5.65108 -0.158781 0.302938 -0.93969
-1.59991 -0.374241 -5.34436 -0.387179 0.472064 -0.79199
-1.72446 -0.834903 -5.66866 -0.032672 0.972061 -0.232443
-1.66147 -0.828372 -5.57584 0.107831 0.980474 -0.16445
-1.4726 -0.823407 -5.65906 -0.129346 0.989358 -0.066638
-1.5171 -0.841239 -5.78269 -0.195107 0.955822 -0.219856
-1.74647 -0.85218 -5.70169 -0.330544 0.780501 -0.530621
-1.85448 -0.775425 -5.5066 0.070572 0.90205 -0.425824
-1.66147 -0.828372 -5.57584 0.107831 0.980474 -0.16445
-1.33883 -0.782511 -5.69941 -0.219842 0.964333 -0.147414
-1.40134 -0.815532 -5.8 -0.146019 0.938159 -0.313906
-1.53226 -0.861336 -5.83318 -0.318634 0.745659 -0.585206
-1.76647 -0.917556 -5.73277 -0.606157 0.290848 -0.740257
-1.91317 -0.837756 -5.54296 -0.644596 0.463665 -0.607874
-1.91756 -0.70038 -5.42365 -0.216872 0.636153 -0.740457
-2.17103 -0.475512 -4.43824 -0.883607 0.420168 -0.206634
-2.26925 -0.582888 -4.24036 -0.954341 0.254403 -0.156563
-2.27376 -0.54174 -4.11979 -0.851485 0.502778 -0.148953
-2.27376 -0.54174 -4.11979 -0.99863 -0.046313 -0.024338
-2.28733 -0.501768 -3.76027 -0.948513 0.313133 -0.047658
-2.20117 -0.660051 -4.62781 -0.919737 0.325841 -0.218887
-2.26714 -0.787881 -4.51306 -0.955902 0.216379 -0.198573
-2.13435 -0.670977 -4.92262 -0.894302 0.326532 -0.305943
-2.17098 -0.799695 -4.93678 -0.923471 0.264927 -0.277517
-2.23071 -0.792309 -4.6975 -0.947493 0.231923 -0.220154
-2.26714 -0.787881 -4.51306 -0.955902 0.216379 -0.198573
-2.08891 -0.527001 -4.91296 -0.835665 0.473645 -0.278072
-1.91437 -0.616053 -5.38072 -0.861634 0.324191 -0.390495
-1.87742 -0.49362 -5.32189 -0.730926 0.567112 -0.379646
-1.97131 -0.373731 -4.94746 -0.639131 0.705805 -0.305534
-1.79314 -0.416808 -5.30038 -0.453937 0.8117 -0.367538
-2.14473 -0.362775 -4.22824 -0.81704 0.557152 -0.148417
-2.04174 -0.240777 -4.26784 -0.627597 0.762922 -0.155153
-1.8204 -0.300183 -4.99657 -0.337381 0.899055 -0.27906
-1.59991 -0.374241 -5.34436 -0.155736 0.924969 -0.346667
-1.40688 -0.270327 -5.107 -0.050058 0.955061 -0.292151
-1.36554 -0.430251 -5.5075 -0.055867 0.855772 -0.514328
-2.27376 -0.54174 -4.11979 -0.851485 0.502778 -0.148953
-2.16918 -0.299556 -3.73183 -0.821233 0.565518 -0.07593
-2.12316 -0.102585 -2.46698 -0.739907 0.667321 -0.084973
-1.88964 -0.030174 -3.03095 -0.326792 0.936889 -0.124285
-1.85711 -0.15492 -4.31482 -0.253751 0.952442 -0.168717
-2.24637 -0.405672 -3.34426 -0.957486 0.288235 -0.011897
-2.19898 -0.22401 -2.56582 -0.885039 0.463925 -0.038471
-2.29846 -0.570324 -3.43953 -0.99381 0.107852 0.026651
-2.2573 -0.365643 -2.62896 -0.959803 0.279536 -0.025262
0.465501 -1.44828 -6.11917 0.914032 -0.159451 -0.37299
0.494427 -1.27714 -6.1147 0.970868 -0.071732 -0.228626
0.505965 -1.44313 -5.9995 0.98904 -0.129013 -0.071801
0.485505 -1.4989 -6.02728 0.948827 -0.301784 -0.093023
0.491088 -1.28899 -5.91718 0.995706 0.057251 0.072745
0.492123 -1.43959 -5.88904 0.973807 -0.187891 0.128052
0.485505 -1.4989 -6.02728 0.948827 -0.301784 -0.093023
2.2213 0.100941 -1.502 -0.273772 0.084972 0.958034
2.35938 0.123993 -1.46575 -0.27748 0.099225 0.955594
2.50088 0.184701 -1.43014 -0.278692 0.092551 0.955911
2.54854 0.285795 -1.42543 -0.272854 0.085441 0.958254
2.46407 0.395208 -1.45947 -0.277971 0.101239 0.95524
2.01666 0.338571 -1.58452 -0.320478 0.113808 0.940394
2.05568 0.183831 -1.55958 -0.424816 0.038615 0.904456
2.42404 0.142845 -1.4483 -0.292295 0.125091 0.948112
2.03479 0.395706 -1.59097 -0.292047 0.182835 0.938765
1.77124 -1.82739 0.447444 0.090406 -0.995877 0.007484
1.89836 -1.84348 -2.53162 0.366129 -0.929273 -0.049007
1.76265 -1.81695 2.37998 0.172559 -0.982968 0.063228
7.5e-005 -1.81695 2.38003 0.000667 -0.997424 0.071723
2.4e-005 -1.8236 0.447492 0.001967 -0.999987 0.004662
-6.3e-005 -1.83476 -2.79384 -5e-005 -0.999786 -0.020667
1.77801 -1.85562 -2.75586 -0.008302 -0.999551 -0.028777
-0.000114 -1.74721 -4.79074 -0.001816 -0.998802 -0.048908
1.95983 -1.75073 -4.80616 0.344954 -0.934848 -0.084064
0.000129 -1.52143 4.45811 0.001357 -0.991343 0.131291
-1.8568 -1.52977 4.48028 0.003908 -0.992339 0.123481
-1.8445 -1.50202 4.7732 0.022941 -0.98945 0.143043
1.85706 -1.52977 4.48019 0.24249 -0.96181 0.126966
1.3345 -1.39739 5.39954 0.039757 -0.922467 0.384023
0.000156 -1.37999 5.50262 -0.004224 -0.936248 0.351313
-1.33419 -1.39739 5.3996 -0.033484 -0.93886 0.342666
-1.77138 -1.42148 5.24444 -0.213042 -0.928935 0.302807
-1.81276 -1.44695 5.10767 0.102112 -0.983067 0.152156
2.07234 -1.71412 2.38796 0.625851 -0.77668 0.071262
2.03938 -1.35695 4.80191 0.757749 -0.630991 0.166335
1.84477 -1.50202 4.77308 0.575977 -0.802018 0.15817
2.08333 -1.72271 1.88751 0.305346 -0.952096 0.016636
2.10272 -1.73187 0.447435 0.315274 -0.948949 0.00992
2.02622 -1.17772 5.19848 0.903942 -0.28539 0.3185
1.92895 -1.16587 5.41016 0.832963 -0.374913 0.406956
1.87867 -1.3143 5.34611 0.511902 -0.666464 0.542016
1.81305 -1.44695 5.10758 0.535938 -0.801692 0.26469
1.93459 -1.138 5.41436 0.900905 -0.147762 0.408089
2.14586 -1.6243 2.12367 0.843744 -0.536349 0.020629
2.20723 -1.50072 2.27448 0.929964 -0.3667 0.026432
2.23834 -1.38378 2.28807 0.999617 0.023426 -0.01473
2.08333 -1.72271 1.88751 0.805448 -0.5923 0.020818
2.17602 -1.63991 0.447435 0.856741 -0.515695 0.007293
2.25056 -1.45453 0.413301 0.994279 -0.106774 -0.002813
2.22546 -1.31958 2.29694 0.99982 0.018938 -0.001016
2.28819 -0.950703 2.55986 0.984234 -0.171761 0.042199
2.31978 -0.558873 3.02462 0.993254 -0.095455 0.065845
2.14019 -1.66009 -2.52584 0.896058 -0.443848 -0.008856
2.19145 -1.53816 -2.57104 0.920086 -0.391513 -0.012613
2.18339 -1.54548 -2.82428 0.980645 -0.195486 -0.010983
2.13304 -1.66958 -2.81151 0.862036 -0.506292 -0.023729
2.06788 -1.76747 -2.5283 0.81093 -0.585086 -0.008186
2.13304 -1.66958 -2.81151 0.862036 -0.506292 -0.023729
2.06115 -1.76644 -2.79338 0.859556 -0.510597 -0.021318
2.12306 -1.55926 -4.80028 0.97659 -0.194639 -0.091588
2.10272 -1.73187 0.447435 0.781962 -0.623293 0.006396
2.08333 -1.72271 1.88751 0.805448 -0.5923 0.020818
2.09634 -1.63962 -4.80226 0.764913 -0.636647 -0.097925
2.01109 -1.57679 -5.3296 0.95182 -0.138095 -0.273805
2.11287 -1.48404 -4.78852 0.989106 -0.082409 -0.121977
2.13304 -1.66958 -2.81151 0.991 0.133838 0.002449
1.97403 -1.65722 -5.3041 0.656997 -0.716712 -0.233833
1.92077 -1.59205 -5.52445 0.71537 -0.570102 -0.404016
1.87968 -1.65997 -5.49157 0.451398 -0.827789 -0.333174
1.75128 -1.5988 -5.71552 0.609216 -0.292518 -0.737082
1.85965 -1.71517 -5.25121 0.126592 -0.983934 -0.125887
1.78171 -1.69759 -5.41552 0.152182 -0.97187 -0.179749
1.71418 -1.66252 -5.65504 0.277305 -0.879936 -0.385764
2.06115 -1.76644 -2.79338 0.296234 -0.954538 -0.033205
-0.000144 -1.70309 -5.89684 0.003716 -0.996535 -0.083092
1.30233 -1.6898 -5.70874 0.064405 -0.985477 -0.157118
1.47081 -1.68722 -5.64874 0.072334 -0.986095 -0.149615
1.64883 -1.68807 -5.55274 0.088608 -0.983291 -0.159021
1.49867 -1.66192 -5.78548 0.08238 -0.981295 -0.173993
-0.465072 -1.69983 -5.87428 -0.012907 -0.993221 -0.115519
-0.000147 -1.66603 -6.08008 -0.004718 -0.982045 -0.188587
-1.96006 -1.75073 -4.8061 -0.186395 -0.979652 -0.074426
-0.814935 -1.69669 -5.82622 -0.030642 -0.990778 -0.131982
-0.488436 -1.67109 -6.04108 -0.023088 -0.985495 -0.168127
-0.000147 -1.66603 -6.08008 -0.004718 -0.982045 -0.188587
-1.77813 -1.85562 -2.75576 -0.108339 -0.993769 -0.026167
-2.06128 -1.76644 -2.79328 -0.411565 -0.910286 -0.044652
-2.09658 -1.63962 -4.80214 -0.564335 -0.818935 -0.10427
-1.8599 -1.71517 -5.25112 -0.296028 -0.943396 -0.149569
-0.844716 -1.66649 -5.99557 -0.049008 -0.982981 -0.177048
-1.7712 -1.82739 0.44754 -0.192721 -0.981201 0.010141
-1.89848 -1.84348 -2.53153 -0.300291 -0.953607 -0.021407
-2.06799 -1.76747 -2.5282 -0.365815 -0.930671 0.0056
-1.7625 -1.81695 2.38008 -0.21759 -0.974161 0.060541
-2.08321 -1.72271 1.88762 -0.294204 -0.955652 0.013188
-2.10267 -1.73187 0.447549 -0.27689 -0.960859 0.009061
-2.06799 -1.76747 -2.5282 -0.365815 -0.930671 0.0056
-1.8568 -1.52977 4.48028 0.003908 -0.992339 0.123481
1.49867 -1.66192 -5.78548 0.08238 -0.981295 -0.173993
-2.07219 -1.71412 2.38807 -0.311839 -0.945992 0.088632
-1.8568 -1.52977 4.48028 -0.574501 -0.813166 0.093329
-1.8445 -1.50202 4.7732 -0.576385 -0.806376 0.132432
-1.97429 -1.65722 -5.30401 -0.401926 -0.907153 -0.124617
-1.87995 -1.65997 -5.49145 -0.232539 -0.953501 -0.191732
-1.78198 -1.69759 -5.41546 -0.128108 -0.975975 -0.176241
-1.6491 -1.68807 -5.55265 -0.107165 -0.981677 -0.157562
-1.3026 -1.6898 -5.70865 -0.060874 -0.987023 -0.148596
-1.08079 -1.65649 -5.9602 -0.06905 -0.979147 -0.191058
-1.71445 -1.66252 -5.65498 -0.115725 -0.979758 -0.163345
-1.49895 -1.66192 -5.78542 -0.075988 -0.98312 -0.166436
-1.34788 -1.65531 -5.87356 -0.06723 -0.981327 -0.180215
1.34759 -1.65531 -5.87362 0.067718 -0.979663 -0.188877
2.23654 0.399102 -1.656 0.023835 0.959132 -0.281953
2.22353 0.423669 -1.53737 -0.018455 0.974765 -0.222467
2.40036 0.411921 -1.4804 0.182539 0.967003 -0.17772
2.03152 0.36558 -1.7007 -0.166913 0.936707 -0.307767
2.03479 0.395706 -1.59097 -0.068134 0.962592 -0.262247
2.0409 0.274638 -1.92372 -0.284486 0.828413 -0.482494
2.01073 0.324363 -1.7732 -0.711853 0.677619 -0.184656
2.01225 0.248151 -1.92428 -0.645188 0.627924 -0.435251
1.99264 0.302052 -1.77146 -0.777657 0.625054 -0.067513
2.06448 0.174795 -2.0353 0.233998 0.66507 -0.709174
2.4138 0.385941 -1.609 0.240367 0.93754 -0.251479
2.42349 0.360048 -1.67372 0.262517 0.908817 -0.324248
2.45577 0.373413 -1.5961 0.343565 0.909258 -0.234974
2.46407 0.395208 -1.45947 0.314063 0.935207 -0.163559
2.40036 0.411921 -1.4804 0.182539 0.967003 -0.17772
2.46407 0.395208 -1.45947 0.314063 0.935207 -0.163559
2.06448 0.174795 -2.0353 -0.521922 0.577883 -0.627414
2.2043 0.106809 -1.79903 0.244699 -0.962562 -0.116604
2.24394 0.133203 -1.8657 0.338576 -0.923177 -0.181964
2.4382 0.166239 -1.67767 0.373175 -0.91058 -0.177721
2.04987 0.076632 -1.9455 0.497515 -0.863801 -0.079538
2.09754 0.094284 -1.78634 -0.104552 -0.994451 0.01168
2.04117 0.070518 -1.82304 0.690779 -0.723064 0.001753
2.03947 0.065433 -1.96648 0.894406 -0.446852 -0.019029
2.04126 0.085545 -2.04942 0.869545 -0.48507 -0.092731
2.06843 0.10161 -2.02454 0.471274 -0.866749 -0.163236
2.24394 0.133203 -1.8657 0.338576 -0.923177 -0.181964
2.17741 0.096453 -1.72663 0.128464 -0.990244 -0.053981
2.36991 0.130026 -1.6468 0.318776 -0.940576 -0.117037
2.2989 0.111225 -1.62441 0.208686 -0.976844 -0.047179
2.23749 0.100857 -1.56109 0.127915 -0.991714 0.011895
2.14158 0.09387 -1.57264 -0.126102 -0.991265 0.038613
2.09754 0.094284 -1.78634 -0.104552 -0.994451 0.01168
2.4382 0.166239 -1.67767 0.373175 -0.91058 -0.177721
2.03211 0.053778 -1.82062 0.929064 -0.369513 0.017347
2.03033 0.061101 -2.08006 0.954503 -0.283645 -0.092029
1.92895 -1.16587 5.41016 0.45452 -0.353594 0.817547
1.66018 -1.14235 5.56976 0.322379 -0.309366 0.894631
1.6357 -1.31116 5.474 0.215636 -0.729338 0.649282
1.77168 -1.42148 5.24435 0.260172 -0.877832 0.402146
1.354 -1.31077 5.52791 0.108589 -0.65193 0.750464
1.60237 -1.4012 5.348 0.015341 -0.958147 0.285864
1.81305 -1.44695 5.10758 -0.019694 -0.985211 0.170207
1.84477 -1.50202 4.77308 -0.120202 -0.985215 0.122076
1.36564 -1.13635 5.62946 0.11323 -0.285172 0.951765
0.000162 -1.28815 5.64746 0.017136 -0.692068 0.721629
-1.35369 -1.31077 5.528 -0.082306 -0.710384 0.698985
1.36258 -0.796101 5.64746 0.151977 0.176727 0.972456
0.000162 -0.786993 5.75915 0.027423 0.181064 0.983089
0.000162 -1.12235 5.74478 -0.025564 -0.284451 0.95835
1.67109 -0.799347 5.59106 0.354962 0.149048 0.922923
1.65231 -0.618159 5.51078 0.232509 0.407456 0.88313
1.34461 -0.616992 5.5727 0.112294 0.395807 0.911442
0.000162 -0.608649 5.68082 -0.025971 0.398482 0.916808
-1.36226 -0.796101 5.64752 -0.114152 0.178185 0.977353
1.93459 -1.138 5.41436 0.472813 -0.139325 0.870078
1.92895 -1.16587 5.41016 0.45452 -0.353594 0.817547
1.94089 -0.618675 5.39336 0.387052 0.353744 0.851502
-1.34429 -0.616992 5.57279 -0.142321 0.399943 0.905423
-1.36531 -1.13635 5.62955 -0.145876 -0.288998 0.94615
-1.63539 -1.31116 5.47406 -0.258298 -0.620362 0.740563
-1.60207 -1.4012 5.34806 -0.150855 -0.85706 0.492636
-1.65986 -1.14235 5.56988 -0.374994 -0.254646 0.891367
-1.92865 -1.16587 5.41028 -0.436922 -0.401481 0.80493
-1.93428 -1.138 5.41448 -0.487295 -0.174507 0.855623
-1.96068 -0.803397 5.44736 -0.688743 0.062424 0.722313
-1.93428 -1.138 5.41448 -0.487295 -0.174507 0.855623
-2.07149 -0.625035 5.19848 -0.878413 0.246464 0.409445
-2.08209 -0.806289 5.22608 -0.934476 -0.03463 0.354338
-1.93428 -1.138 5.41448 -0.891771 -0.156117 0.424703
-2.02871 -1.13104 5.20283 -0.944572 -0.148959 0.292567
-2.02592 -1.17772 5.1986 -0.911702 -0.24375 0.330735
-1.92865 -1.16587 5.41028 -0.845916 -0.343503 0.407961
-2.05595 -0.56508 5.17307 -0.739987 0.571364 0.354913
-2.17692 -0.635841 4.8137 -0.969289 0.101036 0.224211
-2.18217 -0.818499 4.82471 -0.970356 -0.154422 0.185912
-2.11264 -1.1327 4.80815 -0.981044 -0.081843 0.175654
-2.00538 -0.509268 5.09738 -0.535583 0.790079 0.298204
-2.2826 -0.655641 4.23524 -0.984148 0.110514 0.138708
-2.25586 -0.822303 4.37786 -0.984951 -0.08847 0.148475
-1.85807 -0.505101 5.1971 -0.150389 0.935638 0.31932
-2.30189 -0.607152 3.91178 -0.93225 0.347561 0.100556
-2.13835 -0.519987 4.79831 -0.843379 0.487489 0.225978
-2.27979 -0.532803 3.72248 -0.857301 0.50324 0.108557
-1.87837 -1.3143 5.34623 -0.53687 -0.662616 0.522217
-1.95658 -1.32813 5.17532 -0.720327 -0.633711 0.282028
-1.92865 -1.16587 5.41028 -0.436922 -0.401481 0.80493
-2.1155 -1.18431 4.80884 -0.968096 -0.178774 0.175585
-1.81276 -1.44695 5.10767 -0.553685 -0.801239 0.226823
-2.16247 -1.14337 4.38752 -0.995437 -0.084941 0.043485
-2.16574 -1.19842 4.40255 -0.970961 -0.217884 0.098801
-2.24221 -1.37489 2.42133 -0.99765 -0.066365 0.017001
-2.25266 -0.903381 4.26374 -0.941756 -0.335246 -0.026575
-2.27979 -0.532803 3.72248 -0.978967 -0.200402 -0.038239
-2.22823 -1.31348 2.43502 -0.996748 -0.072614 0.034926
-2.29571 -0.739233 4.11986 -0.971144 -0.232228 -0.054305
-2.30189 -0.607152 3.91178 -0.818783 -0.495394 -0.290137
1.08049 -1.65649 -5.96029 0.06047 -0.980788 -0.185467
0.844425 -1.66649 -5.9956 0.044079 -0.98508 -0.166358
0.488139 -1.67109 -6.04114 0.018177 -0.984039 -0.17702
1.08675 -1.49262 -5.92822 0.004397 0.913408 -0.407021
1.06506 -1.43768 -5.79997 0.022096 0.920062 -0.39115
1.1482 -1.42247 -5.7799 -0.027011 0.907942 -0.418224
0.854523 -1.49632 -5.97781 0.060432 0.920994 -0.38486
1.09258 -1.59924 -5.9944 0.230439 -0.553738 -0.80017
1.34898 -1.59464 -5.91994 0.302559 -0.624174 -0.720323
1.49867 -1.66192 -5.78548 0.347998 -0.657774 -0.668005
1.5169 -1.59207 -5.85337 0.364739 -0.636344 -0.679729
1.56042 -1.58131 -5.83297 0.500847 -0.195915 -0.843071
1.63219 -1.54806 -5.79046 0.556104 0.048323 -0.829707
1.74486 -1.49707 -5.70586 0.637066 -0.066409 -0.767943
1.90711 -1.49663 -5.52244 0.834445 -0.045576 -0.549203
1.92077 -1.59205 -5.52445 0.850883 0.133667 -0.508066
1.68439 -1.49329 -5.7487 0.576721 -0.028216 -0.816454
-0.00015 -1.43606 -6.20212 -0.003326 -0.083475 -0.996504
-0.000153 -0.994017 -6.23629 -0.003368 -0.083383 -0.996512
0.429231 -0.993456 -6.24061 4.2e-005 -0.086677 -0.996236
-0.423288 -1.4367 -6.1978 -8.6e-005 -0.086538 -0.996248
1.54841 -0.920481 -5.86504 0.433705 0.300681 -0.849406
1.60758 -1.24216 -5.86321 0.508328 0.008131 -0.861125
1.76619 -0.917556 -5.73286 0.596984 0.258751 -0.75938
1.77682 -1.2403 -5.7505 0.63437 -0.102564 -0.766196
1.7063 -1.34325 -5.77369 0.587101 -0.227128 -0.776998
1.70899 -1.42621 -5.74165 0.552908 -0.198957 -0.809141
1.68439 -1.49329 -5.7487 0.576721 -0.028216 -0.816454
1.74619 -0.85218 -5.70181 0.379353 0.705008 -0.599211
1.91291 -0.837756 -5.54305 0.602342 0.500013 -0.62223
1.93304 -0.919875 -5.56192 0.785692 0.16803 -0.595361
1.94642 -1.23491 -5.56318 0.819979 -0.090388 -0.565211
1.53197 -0.861336 -5.83324 0.370376 0.514585 -0.77332
1.39893 -1.24711 -5.95501 0.349767 0.068107 -0.934358
1.34174 -1.35871 -5.86309 0.551139 -0.057225 -0.832449
1.36353 -1.46696 -5.86084 0.54519 0.225589 -0.807389
1.37284 -1.28424 -5.87824 0.478939 -0.361716 -0.799862
1.34658 -1.47126 -5.87425 0.435161 0.387788 -0.812561
1.34174 -1.35871 -5.86309 0.551139 -0.057225 -0.832449
1.48223 -1.57002 -5.85082 0.439079 0.599555 -0.669137
1.34898 -1.59464 -5.91994 0.279078 0.271949 -0.920956
1.5169 -1.59207 -5.85337 0.275577 0.700116 -0.658707
1.56042 -1.58131 -5.83297 0.053669 0.780808 -0.622461
1.26962 -0.619872 -5.69077 0.20999 0.336776 -0.91787
0.87516 -0.617028 -5.78164 0.123548 0.3821 -0.915825
0.879771 -0.587736 -5.76817 0.166947 0.360767 -0.917592
-0.000141 -0.593103 -5.84764 0.026008 0.374405 -0.9269
1.87717 -0.49362 -5.32201 0.15874 0.447142 -0.880265
1.85831 -0.639444 -5.39896 0.026822 0.375365 -0.926489
1.9957 -1.48206 -5.33068 0.945607 -0.044414 -0.322264
2.19778 -1.21156 -4.7434 0.969342 -0.184127 -0.162707
2.04228 -1.22587 -5.37052 0.929215 -0.122082 -0.34879
2.18734 -0.890211 -4.94746 0.960367 0.040012 -0.275853
2.23846 -0.882885 -4.72861 0.975501 0.059317 -0.211845
2.26277 -0.875745 -4.59349 0.999282 -0.033329 -0.018003
2.17627 -1.49532 -2.83034 0.998326 -0.053838 -0.02111
2.19145 -1.53816 -2.57104 0.983091 0.180895 -0.028446
2.02819 -0.913641 -5.39389 0.903779 0.122064 -0.410225
2.17074 -0.799695 -4.9369 0.913485 0.271192 -0.303316
2.23048 -0.792309 -4.69762 0.948316 0.233689 -0.214678
2.26692 -0.787881 -4.51318 0.962178 0.190592 -0.194647
1.92077 -1.59205 -5.52445 0.850883 0.133667 -0.508066
2.00897 -0.825228 -5.386 0.833597 0.338534 -0.436475
1.9173 -0.70038 -5.42374 0.848131 0.347453 -0.399938
2.13412 -0.670977 -4.92274 0.906036 0.303315 -0.295124
2.20096 -0.660051 -4.62793 0.917599 0.33139 -0.21953
2.26277 -0.649875 -4.35658 0.996185 0.071277 -0.05035
2.26692 -0.787881 -4.51318 0.962178 0.190592 -0.194647
1.91412 -0.616053 -5.38081 0.843587 0.38705 -0.372226
2.08867 -0.527001 -4.91308 0.865413 0.411885 -0.285325
2.17081 -0.475512 -4.43836 0.852166 0.482583 -0.202302
2.26905 -0.582888 -4.24048 0.956743 0.254508 -0.140956
2.26692 -0.787881 -4.51318 0.891678 -0.327633 0.312358
2.04154 -0.240777 -4.26796 0.690664 0.706089 -0.156273
2.14453 -0.362775 -4.22836 0.82177 0.546699 -0.160669
2.27357 -0.54174 -4.11988 0.847554 0.513808 -0.132868
2.16901 -0.299556 -3.73192 0.834778 0.545694 -0.073231
1.97107 -0.373731 -4.94752 0.663423 0.686914 -0.296679
1.85691 -0.15492 -4.31491 0.299217 0.941743 -0.15359
2.02929 -0.033102 -2.63275 0.509239 0.853126 -0.113369
2.12305 -0.102585 -2.46709 0.74637 0.662363 -0.06487
1.91412 -0.616053 -5.38081 0.843587 0.38705 -0.372226
2.27357 -0.54174 -4.11988 0.992943 -0.117955 -0.012306
2.28715 -0.501768 -3.76039 0.976954 0.209738 -0.039633
2.29831 -0.570324 -3.43965 0.999322 -0.005816 -0.036342
2.27449 -1.01446 -2.95693 0.987398 -0.152413 -0.042599
2.18161 -1.48452 -2.58554 0.997039 -0.075191 -0.016108
2.19145 -1.53816 -2.57104 0.983091 0.180895 -0.028446
2.24622 -0.405672 -3.34438 0.939331 0.342997 0.003234
2.29757 -0.686256 -3.08343 0.998877 0.047315 0.002447
2.29552 -0.744936 -3.16039 0.997095 -0.073637 -0.019491
2.27817 -1.00428 -2.66913 0.993096 -0.116657 -0.012331
2.25718 -0.365643 -2.62908 0.952755 0.302336 -0.029164
2.30693 -0.673149 -2.67835 0.999059 0.038534 -0.019882
2.34938 -0.559452 0.352224 0.99781 0.065538 -0.008908
2.32965 -0.928935 0.360669 0.992053 -0.125822 -0.000107
2.27357 -0.54174 -4.11988 0.847554 0.513808 -0.132868
2.27178 -0.197607 0.379341 0.960339 0.278416 -0.0153
2.32749 -0.447315 2.97701 0.999514 0.017912 0.025503
2.30522 -0.878196 2.45003 0.989912 -0.139757 0.023282
2.23784 -1.40365 0.407481 0.999853 0.016005 -0.006165
2.21609 -0.077667 0.397629 0.867693 0.496245 -0.029136
2.20123 0.11223 3.2573 0.862771 0.505572 -0.004798
2.27002 -0.067266 3.19385 0.957815 0.28691 0.016512
2.31221 -0.270279 3.11021 0.993754 0.105023 0.037723
2.19887 -0.22401 -2.56593 0.868896 0.493439 -0.039207
2.14918 0.022761 0.416463 0.746487 0.664415 -0.036199
2.09947 0.247299 3.30077 0.702317 0.711396 -0.025813
2.06154 0.275514 3.84467 0.676055 0.736038 0.034614
2.17002 0.151671 3.8321 0.876361 0.477661 0.061897
2.04945 -0.020193 -2.37253 0.752431 0.65684 -0.049069
2.08132 0.074727 0.421737 0.799732 0.599641 -0.029329
1.88374 -0.011187 -2.91889 0.331902 0.931046 -0.151637
1.8193 0.03738 -2.7203 0.183814 0.982881 -0.012529
1.88951 -0.030174 -3.03104 0.258438 0.956324 -0.136583
1.56193 0.008325 -3.2278 0.146253 0.978951 -0.142352
1.59747 0.029058 -2.9276 0.046398 0.996711 -0.066446
1.2017 0.020889 -3.39556 0.076591 0.979789 -0.184789
1.26602 0.033288 -3.09769 0.02834 0.998403 -0.048861
1.55378 -0.008358 -3.31927 0.112774 0.98054 -0.160694
1.19506 -0.008334 -3.5002 0.066654 0.977984 -0.197747
-8.4e-005 0.004068 -3.70474 0.006676 0.969205 -0.246165
-8.4e-005 0.037485 -3.62233 -0.005328 0.98031 -0.19739
-7.5e-005 0.05403 -3.29407 -0.007577 0.998764 -0.049117
1.46743 -0.122097 -4.39138 0.061594 0.983674 -0.169088
1.07769 -0.14085 -4.45066 0.005698 0.984735 -0.173966
-0.000108 -0.125133 -4.54705 0.010437 0.981196 -0.192731
-1.0779 -0.14085 -4.4506 -0.014206 0.982199 -0.187304
-1.19522 -0.008334 -3.50014 -0.065606 0.974443 -0.21484
1.82016 -0.300183 -4.99666 0.339691 0.893872 -0.292579
1.40663 -0.270327 -5.10709 0.072261 0.957044 -0.280794
0.97266 -0.316563 -5.20762 0.004249 0.952963 -0.303057
-0.000129 -0.317073 -5.32348 -0.001253 0.946728 -0.322031
1.87717 -0.49362 -5.32201 0.658309 0.660839 -0.360445
1.79288 -0.416808 -5.3005 0.343093 0.886692 -0.309943
1.59966 -0.374241 -5.34445 0.14833 0.944568 -0.292897
1.36527 -0.430251 -5.50753 0.020653 0.887357 -0.460621
1.36527 -0.430251 -5.50753 0.020653 0.887357 -0.460621
0.908904 -0.475272 -5.60029 0.052613 0.861415 -0.50517
-0.000138 -0.487143 -5.69425 9.8e-005 0.873209 -0.487346
-0.972912 -0.316563 -5.20756 -0.00325 0.952437 -0.304719
-1.46764 -0.122097 -4.39132 -0.049832 0.986351 -0.156934
1.27212 -0.591252 -5.68126 0.102738 0.765333 -0.635382
2.2384 -0.044013 3.80252 0.975046 0.211857 0.066345
2.15261 -0.228645 4.78976 0.970733 0.117307 0.209564
2.11987 -0.224172 4.89803 0.919222 0.0688699 0.387669
2.00567 -0.509268 5.09732 0.788112 0.00698899 0.615492
2.19232 -0.022542 4.31675 0.961494 0.249069 0.116165
2.1136 -0.006147 4.78163 0.923159 0.253769 0.288754
1.85836 -0.505101 5.19698 0.491395 0.037186 0.870143
2.07581 0.11112 4.77692 0.908885 0.343253 0.236868
2.03764 0.202566 4.77371 0.835754 0.521248 0.172673
1.97654 0.271818 4.78199 0.670032 0.732134 0.122622
1.86852 0.339837 4.80632 0.466267 0.879271 0.097355
1.76484 0.375102 4.83371 0.279955 0.956834 0.078059
1.9434 0.35982 3.8603 0.465327 0.884573 0.031649
1.78101 0.411969 4.20188 0.285299 0.957105 0.050536
1.74252 0.341586 5.1512 0.298111 0.946994 0.119716
1.98334 0.343458 3.3089 0.722254 0.690909 0.031531
1.92552 0.37692 3.52733 0.665287 0.72848 0.163435
1.73966 0.435255 3.86219 0.398772 0.912749 0.088717
1.76201 0.423384 4.046 0.26594 0.963389 0.034007
2.00234 0.306324 2.70905 0.820906 0.565647 -0.078469
1.92866 0.439797 3.29279 0.841104 0.518839 0.152809
1.77273 0.724308 3.10163 0.732881 0.636243 0.240996
1.618 0.749244 3.33557 0.604507 0.740819 0.292845
2.02331 0.242319 2.46241 0.788349 0.612953 -0.052866
1.96863 0.346287 2.67683 0.82745 0.553723 -0.093366
1.90738 0.486576 2.84186 0.829677 0.540622 -0.139155
1.93372 0.472428 2.89976 0.861483 0.504592 -0.05687
1.8764 0.540216 3.22211 0.809733 0.557174 0.184089
1.99464 0.291285 2.45679 0.875372 0.48317 -0.016426
2.05125 0.137697 0.518145 0.903302 0.428836 -0.012026
2.05351 0.127569 0.354429 0.907869 0.419044 -0.013247
1.87534 0.550053 0.584793 0.914159 0.405325 -0.005028
1.87447 0.551295 0.422208 0.904481 0.426034 -0.020207
1.68296 0.951543 0.633753 0.869229 0.493612 -0.028063
2.03211 0.053778 -1.82062 0.915613 0.401423 -0.022633
2.03133 0.030858 -2.27455 0.929387 0.368552 -0.020206
1.67506 0.947445 0.478335 0.866651 0.49563 -0.057149
1.47334 1.27218 0.542328 0.770918 0.636649 -0.01908
1.46864 1.27841 0.686781 0.747146 0.664649 0.00391
1.43054 1.31537 0.688443 0.535488 0.844543 0.000708
1.49607 1.22265 1.96761 0.633916 0.771263 0.057487
1.45042 1.2561 1.97783 0.530021 0.843206 0.089895
1.55022 1.13466 2.25257 0.669917 0.735063 0.104371
1.50925 1.17229 2.27516 0.541893 0.825596 0.1573
1.6464 0.983925 2.56262 0.734395 0.669026 0.114314
1.48718 1.2529 0.22146 0.682926 0.72945 -0.038916
1.44922 1.29054 0.214629 0.489094 0.86941 -0.070092
1.28708 1.34489 0.201069 0.224278 0.971657 -0.0747079
1.27692 1.36972 0.678723 0.23591 0.971765 -0.004397
1.28142 1.31879 2.00222 0.250603 0.961449 0.113195
1.49128 1.17805 -0.574977 0.506294 0.850581 -0.142048
1.33418 1.22823 -0.608841 0.213141 0.959662 -0.183357
1.0172 1.37412 0.194316 0.08349 0.990515 -0.109127
1.00176 1.40731 0.665496 0.089908 0.995798 -0.017402
1.53981 1.14041 -0.555174 0.712028 0.696356 -0.090023
1.56029 1.06949 -0.900984 0.554783 0.80834 -0.196982
1.37677 1.11968 -0.967281 0.289668 0.924686 -0.247078
1.07841 1.14893 -1.02047 0.105937 0.957498 -0.268282
1.0587 1.25329 -0.651201 0.069701 0.97689 -0.202059
1.8e-005 1.4199 0.203559 0.013359 0.994941 -0.099569
1.67893 0.860601 -1.30523 0.73106 0.659568 -0.174702
1.6387 0.873165 -1.34798 0.591544 0.757996 -0.274806
1.54951 1.02358 -1.08645 0.484151 0.842382 -0.236622
1.70944 0.831297 -1.25456 0.754454 0.632839 -0.174109
1.84377 0.511944 -1.7274 0.832467 0.532439 -0.153322
1.83189 0.50412 -1.84787 0.784746 0.582105 -0.212903
1.80715 0.4887 -1.94122 0.682365 0.670345 -0.291575
1.95738 0.036948 -2.51626 0.748877 0.60066 -0.279984
1.82043 0.607719 -1.54288 0.844992 0.512922 -0.151323
2.01805 -0.035568 -2.41367 0.900811 0.420914 -0.106636
2.00676 -0.0336 -2.50014 0.851077 0.495036 -0.174948
1.97811 -0.025398 -2.59562 0.717845 0.626143 -0.304375
1.8193 0.03738 -2.7203 0.590055 0.702566 -0.397789
-1.8e-005 1.17802 -1.11011 0.015179 0.964254 -0.264543
-6e-006 1.29491 -0.679695 -0.015239 0.979135 -0.202639
-1.01717 1.37412 0.194373 -0.075094 0.992801 -0.093312
3e-005 1.44474 0.660687 0.001001 0.999916 -0.012934
1.01707 1.35218 2.02875 0.083598 0.991477 0.099919
-1.07844 1.14893 -1.02041 -0.077818 0.961162 -0.264785
-1.05871 1.25329 -0.651147 -0.0965099 0.974381 -0.203142
-1.28705 1.34489 0.201135 -0.218 0.970827 -0.099853
-1.27686 1.36972 0.678792 -0.23263 0.97255 -0.005474
-1.0017 1.40731 0.665547 -0.079649 0.996809 -0.005158
6.6e-005 1.40213 2.07895 0.00533 0.994518 0.104431
-1.3768 1.11968 -0.967209 -0.236553 0.937405 -0.255567
-1.33419 1.22823 -0.608772 -0.249926 0.947361 -0.200109
-1.49129 1.17805 -0.574899 -0.538403 0.833807 -0.122015
-1.44919 1.29054 0.214707 -0.543209 0.838056 -0.050853
-1.56031 1.06949 -0.900903 -0.559966 0.808919 -0.17913
-1.70948 0.831297 -1.25447 -0.772758 0.620138 -0.135179
-1.53981 1.14041 -0.555093 -0.663191 0.741617 -0.100909
-1.54955 1.02358 -1.08637 -0.493624 0.83294 -0.250092
-1.67898 0.860601 -1.30514 -0.661319 0.714216 -0.229245
-1.83197 0.50412 -1.84777 -0.793627 0.576035 -0.195805
-1.84383 0.511944 -1.72731 -0.862445 0.487308 -0.136821
-2.00283 0.029442 -2.28442 -0.859918 0.482957 -0.165206
-1.63875 0.873165 -1.3479 -0.558747 0.773814 -0.298351
-1.80724 0.4887 -1.94112 -0.702483 0.654545 -0.279444
-2.00687 -0.0336 -2.50004 -0.84216 0.506211 -0.185789
-2.01816 -0.035568 -2.41356 -0.90207 0.418656 -0.104867
-1.95748 0.036948 -2.51615 -0.756032 0.595962 -0.270639
-1.97822 -0.025398 -2.59552 -0.717852 0.626157 -0.304329
-1.81942 0.03738 -2.7202 -0.590071 0.702576 -0.397747
-1.48715 1.2529 0.221541 -0.706766 0.706674 -0.03307
-1.47329 1.27218 0.542403 -0.739965 0.672614 -0.0065
-1.43047 1.31537 0.688521 -0.562805 0.826589 0.001169
-1.4503 1.2561 1.97791 -0.481655 0.872339 0.083861
-1.28129 1.31879 2.00229 -0.249418 0.961746 0.113289
-1.01694 1.35218 2.0288 -0.10593 0.986602 0.124075
-1.46858 1.27841 0.686859 -0.741338 0.671125 -0.003129
-1.49594 1.22265 1.96769 -0.63375 0.770276 0.070964
-1.5091 1.17229 2.27524 -0.539458 0.825184 0.167502
-1.30202 1.24331 2.35223 -0.286137 0.939833 0.186653
-1.67501 0.947445 0.478425 -0.869626 0.492939 -0.027601
-1.6829 0.951543 0.63384 -0.866101 0.496598 -0.057097
-1.87528 0.550053 0.584892 -0.904122 0.426803 -0.020079
-1.87443 0.551295 0.422307 -0.911512 0.411245 -0.004831
-2.0512 0.137697 0.518253 -0.899431 0.436927 -0.010891
-2.05347 0.127569 0.354537 -0.90928 0.415772 -0.018515
-2.08128 0.074727 0.421845 -0.78781 0.615227 -0.029179
-2.02315 0.242319 2.46252 -0.794534 0.606248 -0.03435
-1.99449 0.291285 2.45689 -0.840118 0.540623 -0.043901
-2.00218 0.306324 2.70917 -0.884535 0.464641 -0.041308
-1.96846 0.346287 2.67692 -0.797264 0.584437 -0.151009
-2.04955 -0.020193 -2.37242 -0.803772 0.593128 -0.046359
-2.14914 0.022761 0.416577 -0.712303 0.700686 -0.040784
-2.09928 0.247299 3.30089 -0.701078 0.712771 -0.021141
-1.98314 0.343458 3.30902 -0.751619 0.659301 0.019772
-2.03218 0.053778 -1.82052 -0.926909 0.374696 -0.021058
-2.03143 0.030858 -2.27445 -0.929409 0.368502 -0.020149
-1.04655 1.28508 2.34992 -0.113344 0.974591 0.193197
7.5e-005 1.34756 2.40944 -0.019375 0.984429 0.174709
1.0467 1.28508 2.34986 0.106129 0.976431 0.187933
1.30217 1.24331 2.35216 0.30577 0.933736 0.186124
1.38023 1.18888 2.4612 0.447777 0.865595 0.224146
1.62297 0.99642 2.64644 0.627998 0.75125 0.203081
1.79268 0.720192 2.99366 0.82893 0.549321 0.105456
1.80614 0.686709 3.03662 0.855672 0.516774 0.027742
1.48746 1.02138 2.83775 0.518349 0.814397 0.260906
-1.38007 1.18888 2.46127 -0.422356 0.880713 0.214383
-1.48729 1.02138 2.83784 -0.516924 0.813907 0.265227
-1.62281 0.99642 2.64653 -0.657679 0.732443 0.176027
-1.77254 0.724308 3.10172 -0.724071 0.658392 0.205526
-1.6178 0.749244 3.33566 -0.571322 0.765367 0.29632
-1.73943 0.435255 3.86228 -0.649021 0.701331 0.294798
-1.55007 1.13466 2.25265 -0.711481 0.695344 0.101449
-1.64625 0.983925 2.56268 -0.757508 0.642683 0.114628
-1.7925 0.720192 2.99375 -0.837538 0.545641 0.028385
-1.80595 0.686709 3.03671 -0.858507 0.503325 0.098133
-1.87621 0.540216 3.2222 -0.843224 0.5262 0.109936
-1.92531 0.37692 3.52742 -0.703018 0.697678 0.137881
-1.73943 0.435255 3.86228 -0.649021 0.701331 0.294798
-1.93355 0.472428 2.89988 -0.86339 0.501375 -0.056395
-1.92846 0.439797 3.29291 -0.875567 0.476603 0.07894
-1.94317 0.35982 3.86042 -0.465531 0.884362 0.034424
-1.73943 0.435255 3.86228 -0.292151 0.955903 0.029965
-1.90721 0.486576 2.84198 -0.792736 0.567758 -0.221859
1.51681 -0.841239 -5.78278 0.172083 0.970633 -0.168106
1.47233 -0.823407 -5.65912 0.189946 0.979088 -0.072855
1.66121 -0.828372 -5.57596 -0.040413 0.990689 -0.130005
1.33855 -0.782511 -5.6995 0.219716 0.964347 -0.147512
1.59966 -0.374241 -5.34445 0.347254 0.482626 -0.804044
1.87717 -0.49362 -5.32201 0.15874 0.447142 -0.880265
1.91412 -0.616053 -5.38081 0.09745 0.45452 -0.88539
1.9173 -0.70038 -5.42374 -0.09685 0.293036 -0.951183
1.87309 -0.730689 -5.41408 -0.284594 0.11166 -0.952123
1.47233 -0.823407 -5.65912 0.352121 0.105431 -0.929997
1.33855 -0.782511 -5.6995 0.28718 0.124451 -0.949758
1.26962 -0.619872 -5.69077 0.261691 0.161974 -0.951463
0.465501 -1.44828 -6.11917 -8.3e-005 -0.963238 -0.268649
-0.00015 -1.45204 -6.10822 -0.002839 -0.982172 -0.187961
-0.423288 -1.4367 -6.1978 -0.002368 -0.987447 -0.15793
0.848637 -1.43953 -5.84308 0.055012 0.919575 -0.389045
0.485505 -1.4989 -6.02728 0.048118 0.919103 -0.391068
1.06506 -1.43768 -5.79997 0.022096 0.920062 -0.39115
-0.00015 -1.61376 -6.11809 -0.01917 -0.60259 -0.797821
0.490683 -1.60621 -6.09373 0.068209 -0.615816 -0.784932
2.08328 0.136452 -1.54459 -0.82782 -0.536295 0.164624
2.05568 0.183831 -1.55958 -0.939664 -0.328396 0.095851
2.05228 0.17817 -1.62479 -0.928159 -0.33867 0.154349
1.99146 0.293715 -1.74622 -0.939994 -0.241502 0.241014
2.04284 0.16335 -1.74085 -0.87877 -0.46821 0.092428
2.54854 0.285795 -1.42543 0.827295 0.533557 -0.175785
2.45577 0.373413 -1.5961 0.832427 0.49143 -0.25605
2.42349 0.360048 -1.67372 0.742303 0.462362 -0.484982
2.50088 0.184701 -1.43014 0.464791 -0.885352 0.011021
2.42404 0.142845 -1.4483 0.34246 -0.939489 0.009045
2.41564 0.13854 -1.54346 0.361313 -0.932 -0.028807
2.48895 0.175482 -1.54591 0.442078 -0.894463 -0.067105
2.50088 0.184701 -1.43014 0.464791 -0.885352 0.011021
2.35938 0.123993 -1.46575 0.198119 -0.979771 0.028243
0.848637 -1.43953 -5.84308 0.160129 -0.167293 -0.972816
0.492123 -1.43959 -5.88904 0.12884 -0.17444 -0.976202
1.06506 -1.43768 -5.79997 0.221648 -0.127001 -0.966821
1.1482 -1.42247 -5.7799 0.239866 -0.106969 -0.964895
-1.71445 -1.66252 -5.65498 -0.481619 -0.698931 -0.528714
-1.87995 -1.65997 -5.49145 -0.705782 -0.570311 -0.420258
-1.91437 -0.616053 -5.38072 -0.861634 0.324191 -0.390495
-1.91756 -0.70038 -5.42365 -0.822602 0.375783 -0.426747
-2.00923 -0.825228 -5.38588 -0.859986 0.309134 -0.406031
-2.18758 -0.890211 -4.94734 -0.955764 0.0853591 -0.281478
-2.23869 -0.882885 -4.72849 -0.97856 0.042731 -0.201479
-2.26298 -0.875745 -4.59337 -0.984196 -0.16431 0.066039
-2.02845 -0.913641 -5.39377 -0.884673 0.158871 -0.438308
-2.04253 -1.22587 -5.3704 -0.93291 -0.108056 -0.343515
-2.26714 -0.787881 -4.51306 -0.891588 -0.327739 0.312502
-1.93331 -0.919875 -5.5618 -0.812028 0.143662 -0.565661
-1.94669 -1.23491 -5.56306 -0.824338 -0.084815 -0.559708
-1.91756 -0.70038 -5.42365 -0.822602 0.375783 -0.426747
-2.12329 -1.55926 -4.80016 -0.97683 0.152683 -0.149971
-1.7771 -1.2403 -5.75041 -0.637148 -0.086166 -0.76591
-2.01134 -1.57679 -5.32948 -0.923636 0.14474 -0.35489
-1.5487 -0.920481 -5.86498 -0.44376 0.303901 -0.843043
-1.60787 -1.24216 -5.86312 -0.479033 0.011154 -0.877726
-1.38517 -0.923025 -5.93644 -0.331581 0.250463 -0.909573
-1.60787 -1.24216 -5.86312 -0.479033 0.011154 -0.877726
-1.39922 -1.24711 -5.95492 -0.301553 0.063493 -0.951333
-1.27962 -0.766209 -5.66341 -0.039166 0.942929 -0.330683
-0.872175 -0.864549 -6.02989 -0.133084 0.573384 -0.808405
-1.74514 -1.49707 -5.70577 -0.615939 -0.079631 -0.783759
-1.68468 -1.49329 -5.74861 -0.572289 0.028557 -0.819554
-1.63248 -1.54806 -5.79037 -0.541601 0.029793 -0.840107
-1.56071 -1.58131 -5.83288 -0.500908 -0.196219 -0.842965
-1.51718 -1.59207 -5.85328 -0.376757 -0.512972 -0.771307
-1.49895 -1.66192 -5.78542 -0.343303 -0.71444 -0.609687
-1.70927 -1.42621 -5.74156 -0.054496 -0.165673 -0.984674
-1.70658 -1.34325 -5.7736 -0.201245 -0.435408 -0.877451
-1.68108 -1.35112 -5.76721 0.088102 -0.458337 -0.884401
-1.68624 -1.42288 -5.73937 0.113071 -0.134399 -0.984455
-1.68468 -1.49329 -5.74861 0.011694 0.349604 -0.936825
