-1.83478 4.60951 -0.994476 0.677948 -0.639851 -0.361908
-1.34224 3.96063 -0.422972 0.718154 0.155635 -0.678257
-1.09555 3.87159 -0.178358 -0.221569 -0.200593 -0.95429
-1.31292 4.05995 -0.369198 0.585482 -0.196147 -0.786598
-1.66383 4.43409 -0.759232 0.500828 -0.395888 -0.769704
-1.74769 4.29554 -0.775666 0.660362 -0.0850492 -0.746115
-1.98545 4.35792 -1.0053 0.807632 -0.302662 -0.50609
-1.91865 4.47089 -1.01097 0.784101 -0.45186 -0.42545
-1.92485 4.48456 -1.11024 0.792089 -0.559264 -0.24458
-1.81028 4.61427 -1.13372 0.638432 -0.748334 -0.180001
-2.01006 4.25745 -1.02949 0.748011 -0.0552651 -0.661381
-2.03362 4.27968 -1.06779 0.670132 -0.217338 -0.709709
-1.99166 4.3715 -1.10463 0.608921 -0.535458 -0.585236
-2.0653 4.30684 -1.08844 -0.160825 -0.214082 -0.963485
-2.02333 4.39866 -1.12527 -0.225768 -0.199495 -0.953536
-1.94069 4.50266 -1.1614 0.113139 -0.296302 -0.948369
-1.82612 4.63246 -1.18482 0.181481 -0.432468 -0.883196
-2.1201 4.34508 -1.06087 -0.677014 0.0410826 -0.734823
-2.04885 4.45612 -1.10179 -0.623093 0.177164 -0.761819
-1.96621 4.56012 -1.13792 -0.54574 0.227644 -0.80644
-1.8585 4.66265 -1.17951 -0.402514 0.16736 -0.899985
-2.15183 4.38913 -1.01236 -0.830673 0.204592 -0.517807
-2.08058 4.50017 -1.05329 -0.725911 0.294137 -0.621721
-1.99519 4.61324 -1.08894 -0.664518 0.37643 -0.645536
-1.88748 4.71569 -1.13058 -0.591656 0.471745 -0.653759
-2.17726 4.38166 -0.952832 -0.959257 0.218638 -0.178948
-2.11876 4.55803 -0.967101 -0.858982 0.350757 -0.372987
-2.03337 4.6711 -1.00275 -0.724799 0.464615 -0.508723
-1.91638 4.76694 -1.04815 -0.620175 0.533531 -0.57509
-2.15185 4.49786 -0.87628 -0.93645 0.308829 -0.166392
-2.09336 4.67413 -0.890592 -0.892186 0.442235 0.091826
-1.9959 4.7827 -0.94005 -0.723627 0.539447 -0.430537
-1.87892 4.87863 -0.985402 -0.620665 0.541783 -0.566786
-1.63409 5.12079 -1.00802 -0.551177 0.5135 -0.657664
-2.24854 4.17171 -0.91737 -0.934021 0.246431 -0.258603
-2.19335 4.39952 -0.832166 -0.968594 0.247948 -0.018657
-2.08545 4.75607 -0.780523 -0.853189 0.384398 -0.352571
-1.98499 4.84801 -0.845362 -0.766497 0.502366 -0.40014
-1.88754 4.95658 -0.89482 -0.705758 0.534175 -0.465363
-2.24864 4.13654 -0.878263 -0.932806 0.0776146 0.351922
-2.19346 4.36427 -0.7931 -0.967214 0.137153 0.213744
-2.12695 4.65774 -0.736409 -0.962108 0.243155 -0.123387
-2.03206 4.93082 -0.7006 -0.788516 0.419337 -0.449888
-2.28372 3.89467 -0.903336 -0.582355 -0.169603 0.795045
-2.22706 4.10422 -0.851082 -0.694429 -0.0964978 0.713061
-2.19937 4.274 -0.786762 -0.831122 -0.0775592 0.550654
-2.1484 4.52392 -0.679827 -0.971796 0.0667655 0.226176
-2.19517 4.08157 -0.830255 -0.56557 -0.223907 0.793723
-2.16748 4.25127 -0.765985 -0.722121 -0.198765 0.662596
-2.15431 4.43366 -0.67349 -0.871363 -0.0148259 0.490415
-2.11382 4.41735 -0.623251 -0.951791 -0.149522 0.267838
-2.13064 4.7121 -0.564763 -0.976898 0.085832 -0.19571
-2.13402 4.10459 -0.790129 -0.498001 -0.337411 0.798842
-2.12698 4.23505 -0.715696 -0.743746 -0.32304 0.585223
-2.08281 4.28208 -0.563746 -0.936643 -0.345893 0.0553052
-2.13134 4.47389 -0.427379 -0.965133 -0.160885 -0.206481
-2.16234 4.60916 -0.486875 -0.982702 -0.0955547 -0.158638
-2.14463 4.35754 -0.352645 -0.933539 -0.21049 -0.29017
-2.25756 4.75509 -0.239223 -0.922096 -0.0294762 -0.385837
-2.2028 4.84339 -0.336761 -0.92642 0.0518802 -0.372901
-2.17109 4.94632 -0.414649 -0.899402 0.188308 -0.394481
-2.13786 4.23703 -0.268518 -0.871772 -0.208045 -0.443545
-2.27085 4.63874 -0.164498 -0.892174 -0.0767991 -0.445116
-2.30296 4.96977 -0.093867 -0.901205 0.134963 -0.411844
-2.2482 5.05807 -0.191405 -0.883957 0.209873 -0.417819
-2.17387 5.1368 -0.282967 -0.840107 0.298649 -0.452801
-2.31137 4.52042 -0.093169 -0.845276 -0.0774828 -0.528682
-2.40095 4.75493 0.063448 -0.890638 0.0510447 -0.451839
-2.36043 4.87316 -0.00793 -0.897243 0.0883171 -0.432614
-2.32204 5.14603 0.030249 -0.881622 0.2533 -0.398223
-2.24948 5.2288 -0.055713 -0.856936 0.306751 -0.414204
-2.44768 4.64596 0.139603 -0.897404 0.0206002 -0.440729
-2.43896 4.95463 0.199769 -0.906639 0.163528 -0.388926
-2.37951 5.0495 0.116236 -0.897482 0.199988 -0.393103
-2.31038 5.30304 0.127906 -0.862403 0.329154 -0.384602
-2.43881 5.12605 0.296857 -0.893345 0.245788 -0.376195
-2.37936 5.22093 0.213316 -0.885344 0.291531 -0.362181
-2.2768 5.44834 0.191635 -0.848176 0.401769 -0.345224
-2.20301 5.52251 0.10737 -0.83241 0.421618 -0.359628
-2.23783 5.38581 0.041944 -0.844093 0.360321 -0.397084
-2.50059 5.03891 0.382189 -0.895872 0.22087 -0.385524
-2.41505 5.28978 0.362463 -0.874239 0.343795 -0.342798
-2.34577 5.36623 0.277045 -0.861993 0.378289 -0.33744
-2.23743 5.58643 0.280245 -0.83144 0.467443 -0.300339
-2.47683 5.20264 0.447795 -0.89023 0.318772 -0.325383
-2.37552 5.44264 0.454495 -0.857053 0.435546 -0.275244
-2.30624 5.5191 0.369077 -0.841963 0.452132 -0.294407
-2.5383 5.125 0.537667 -0.898986 0.300788 -0.318358
-2.49893 5.29793 0.637158 -0.882619 0.401049 -0.245242
-2.43747 5.37556 0.547294 -0.871118 0.417913 -0.257881
-2.3209 5.60374 0.579269 -0.829943 0.516537 -0.210675
-2.25917 5.66193 0.483885 -0.819998 0.52753 -0.222068
-2.55605 5.22749 0.730347 -0.895686 0.383347 -0.22537
-2.4383 5.48096 0.772532 -0.857551 0.481392 -0.181298
-2.38285 5.53666 0.67206 -0.84802 0.490176 -0.201469
-2.3171 5.68751 0.806972 -0.804549 0.570822 -0.163898
-2.24643 5.76781 0.768289 -0.786241 0.59681 -0.160135
-2.49541 5.41053 0.865721 -0.861749 0.475012 -0.178189
-2.39597 5.61798 1.0342 -0.827314 0.551849 -0.104947
-2.37255 5.63181 0.907443 -0.837499 0.532455 -0.122826
-2.23624 5.85057 1.06814 -0.775175 0.626179 -0.0836794
-2.16557 5.93087 1.02946 -0.734695 0.674446 -0.073111
-2.55198 5.3488 0.961835 -0.877918 0.450501 -0.1622
-2.45255 5.55625 1.13032 -0.830441 0.549581 -0.0912589
-2.32895 5.74736 1.34111 -0.797503 0.603314 0.00140142
-2.25966 5.83682 1.19496 -0.775072 0.630476 -0.0419944
-2.38425 5.67106 1.43747 -0.790769 0.612015 -0.0110311
-2.19092 5.90505 1.48339 -0.732698 0.676184 0.0769977
-2.12164 5.99442 1.33719 -0.699589 0.714367 0.0159671
-2.02499 6.07968 1.26831 -0.65105 0.759028 -0.00317655
-2.22627 5.84969 1.68367 -0.717874 0.694061 0.0541761
-2.18728 5.894 1.60172 -0.71018 0.701462 0.0599579
-1.92557 6.13361 1.57631 -0.622916 0.775782 0.10069
-1.82892 6.21878 1.50738 -0.580117 0.808073 0.10238
-2.30466 5.76602 1.73179 -0.76823 0.633415 0.0927775
-1.98527 6.0613 1.81496 -0.628439 0.761048 0.160846
-1.92192 6.12256 1.69465 -0.601566 0.793809 0.0893619
-1.58307 6.34482 1.72328 -0.495569 0.857439 0.1386
-2.06366 5.97762 1.86309 -0.680883 0.711328 0.174388
-1.72021 6.22202 1.95958 -0.531449 0.825284 0.190967
-1.65687 6.28328 1.83927 -0.509354 0.848531 0.143367
-2.28482 5.73189 1.88371 -0.745343 0.646386 0.163246
-2.03019 5.98832 1.94595 -0.647969 0.733979 0.203495
-1.76867 6.15769 2.07459 -0.559481 0.786474 0.26161
-1.42144 6.34167 2.14354 -0.438062 0.866121 0.2407
-2.06972 5.91293 2.05774 -0.665501 0.707765 0.237017
-1.8082 6.0823 2.18638 -0.569094 0.765983 0.299002
-1.50251 6.21269 2.36954 -0.489143 0.801031 0.345092
-1.4699 6.27735 2.25855 -0.475747 0.826127 0.301957
-2.104 5.84604 2.1598 -0.670562 0.698682 0.24938
-1.87858 6.009 2.24893 -0.590643 0.761647 0.266524
-2.11294 5.7944 2.27003 -0.666562 0.689565 0.283187
-1.88752 5.95737 2.35916 -0.585268 0.739929 0.331613
-1.57288 6.13948 2.43215 -0.520451 0.781261 0.34462
-2.1445 5.69545 2.42503 -0.660573 0.689119 0.297924
-1.84999 5.92615 2.48143 -0.564882 0.743964 0.356968
-1.53535 6.10826 2.55442 -0.489147 0.785305 0.379514
-1.23443 6.24429 2.6212 -0.395735 0.819675 0.414158
-1.25699 6.29017 2.51054 -0.416464 0.818024 0.396729
-2.18262 5.59851 2.57112 -0.670684 0.672163 0.313656
-1.88811 5.8293 2.62758 -0.573635 0.734894 0.361765
-1.53756 6.03442 2.69831 -0.487196 0.774542 0.403391
-1.23664 6.17045 2.76509 -0.391 0.814482 0.428648
-2.17244 5.50219 2.78196 -0.661462 0.658477 0.358993
-1.8998 5.71355 2.82708 -0.565085 0.722115 0.399034
-1.54926 5.91866 2.89781 -0.48609 0.763833 0.424589
-1.25477 6.06039 2.95013 -0.39671 0.800892 0.448546
-0.979822 6.24763 2.81382 -0.315632 0.83308 0.454263
-2.158 5.36113 3.04749 -0.647779 0.655795 0.387705
-1.88536 5.57239 3.09256 -0.56264 0.714356 0.416092
-1.57754 5.7544 3.15491 -0.487216 0.755791 0.437492
-1.28304 5.89613 3.20723 -0.407056 0.786678 0.464158
-2.38671 5.03469 3.1669 -0.701412 0.601414 0.382522
-2.14678 5.24937 3.24905 -0.643943 0.63825 0.42187
-1.88054 5.45252 3.30259 -0.56554 0.700051 0.435996
-1.57272 5.63453 3.36494 -0.484241 0.75215 0.446968
-1.28068 5.78732 3.39111 -0.396231 0.786872 0.473111
-2.10228 5.16854 3.42585 -0.629775 0.641628 0.437833
-1.83605 5.37169 3.47939 -0.553281 0.684531 0.474655
-1.55979 5.56028 3.50194 -0.48047 0.73433 0.479487
-1.26774 5.71298 3.52805 -0.377546 0.780172 0.498788
-2.32378 4.85822 3.53916 -0.677951 0.600146 0.424509
-2.06904 5.08721 3.59373 -0.612011 0.641167 0.462977
-1.7827 5.29043 3.64674 -0.538486 0.68082 0.496504
-1.50643 5.47902 3.66929 -0.45509 0.713418 0.532849
-1.24504 5.61941 3.67913 -0.370039 0.752409 0.544933
-2.30518 4.77869 3.6845 -0.666593 0.588671 0.457296
-2.04024 5.00608 3.73765 -0.592851 0.634558 0.495846
-1.7539 5.20939 3.79071 -0.517473 0.668737 0.533866
-1.43854 5.35952 3.86526 -0.430359 0.696739 0.573887
-1.17714 5.49992 3.8751 -0.369731 0.731528 0.572857
-2.48365 4.46478 3.7772 -0.721899 0.478827 0.499586
-2.26262 4.69396 3.83745 -0.647759 0.559229 0.517369
-1.99768 4.92135 3.8906 -0.570842 0.618521 0.539973
-1.71986 5.09801 3.95142 -0.496235 0.654934 0.569923
-1.4045 5.24815 4.02597 -0.430143 0.683824 0.589374
-2.41989 4.38871 3.93257 -0.703169 0.451393 0.549361
-2.19885 4.61797 3.99287 -0.627162 0.539792 0.561509
-1.94895 4.80519 4.0614 -0.555678 0.590378 0.585386
-1.67113 4.98185 4.12221 -0.477449 0.632657 0.609744
-1.36275 5.14531 4.16988 -0.418264 0.65903 0.625087
-2.62707 4.1322 3.83826 -0.788709 0.331007 0.518047
-2.57458 4.05159 3.96267 -0.773564 0.310175 0.552621
-2.3674 4.3081 4.05697 -0.689013 0.416436 0.593163
-2.14437 4.5084 4.14646 -0.613684 0.496887 0.613593
-1.89447 4.69571 4.21503 -0.532072 0.557875 0.636926
-2.77752 3.86569 3.72906 -0.872701 0.18169 0.453191
-2.73728 3.79021 3.8274 -0.861302 0.154815 0.483932
-2.53309 3.97831 4.05781 -0.761107 0.296734 0.576771
-2.29879 4.2055 4.1993 -0.661744 0.378805 0.646994
-2.07576 4.40579 4.28877 -0.598627 0.463738 0.653141
-2.82858 3.53202 3.684 -0.914763 0.00252382 0.403983
-2.78421 3.44796 3.7778 -0.893841 -0.0361337 0.446926
-2.69578 3.71692 3.92254 -0.84096 0.116687 0.528366
-2.64521 3.64027 4.0067 -0.825531 0.0542281 0.561746
-2.53323 3.86313 4.1181 -0.786901 0.226733 0.573915
-2.81782 3.17507 3.64045 -0.912748 -0.166902 0.372873
-2.76579 3.06917 3.70128 -0.872649 -0.217023 0.437475
-2.73363 3.37131 3.86196 -0.839471 -0.0999628 0.534131
-2.78998 2.87553 3.49106 -0.903807 -0.252249 0.345691
-2.73795 2.76963 3.5519 -0.907166 -0.258982 0.331629
-2.68565 2.64337 3.59557 -0.885289 -0.272216 0.377043
-2.71231 2.98091 3.75194 -0.841354 -0.23272 0.487816
-2.68015 3.28305 3.91262 -0.813042 -0.150788 0.56234
-2.7715 2.56331 3.31005 -0.890009 -0.276129 0.362818
-2.71027 2.44319 3.36151 -0.895795 -0.28226 0.343338
-2.65797 2.31693 3.40519 -0.890658 -0.303943 0.338153
-2.59067 2.20433 3.46002 -0.871856 -0.328038 0.363673
-2.62818 2.5354 3.64319 -0.868149 -0.287172 0.404783
-2.69228 2.10032 3.12978 -0.866146 -0.332279 0.373338
-2.61717 1.99095 3.18921 -0.858295 -0.354371 0.371147
-2.54987 1.87835 3.24403 -0.848873 -0.373395 0.374153
-2.58932 1.72227 2.99017 -0.846744 -0.385045 0.367103
-2.5124 1.62377 3.06318 -0.838015 -0.396239 0.375133
-2.46886 1.78873 3.32206 -0.832631 -0.399723 0.383337
-2.53005 2.083 3.50337 -0.864435 -0.352253 0.358707
-2.56756 2.41407 3.68654 -0.840207 -0.302682 0.449929
-2.48791 1.4137 2.88484 -0.840462 -0.45627 0.292304
-2.40648 1.33423 2.98427 -0.815559 -0.466775 0.34203
-2.43139 1.53425 3.14124 -0.8157 -0.4135 0.404538
-2.34569 1.46559 3.23756 -0.80594 -0.439092 0.397063
-2.39338 1.69648 3.39225 -0.830078 -0.413424 0.374234
-2.31754 1.1515 2.90997 -0.771437 -0.600781 0.209635
-2.2371 1.09047 2.99829 -0.73199 -0.598334 0.325862
-2.32078 1.26567 3.08063 -0.761775 -0.497766 0.414642
-2.093 0.932672 2.9956 -0.727344 -0.645048 0.234272
-2.01009 0.871012 3.0782 -0.706425 -0.601006 0.373839
-2.1368 1.04701 3.10196 -0.692456 -0.55539 0.460485
-2.22049 1.22221 3.1843 -0.720047 -0.535747 0.441031
-1.86134 0.698281 3.07398 -0.655973 -0.645351 0.391435
-1.92477 0.837049 3.16022 -0.611667 -0.544957 0.573485
-2.05149 1.01305 3.18398 -0.659113 -0.566861 0.494205
-2.12533 1.1769 3.28579 -0.671819 -0.578709 0.462337
-2.26637 1.40325 3.33934 -0.772778 -0.487055 0.406929
-1.7962 0.650262 3.09175 -0.63669 -0.606658 0.476016
-1.85963 0.789029 3.178 -0.612233 -0.581127 0.536155
-1.94244 0.986556 3.28547 -0.629705 -0.577808 0.519239
-2.01628 1.1504 3.38728 -0.646243 -0.612695 0.454944
-2.17121 1.35793 3.44083 -0.723357 -0.534965 0.43654
-1.73412 0.564605 3.06711 -0.515192 -0.640653 0.569333
-1.73363 0.618536 3.1267 -0.458439 -0.6538 0.601979
-1.77198 0.749834 3.24148 -0.46805 -0.60495 0.644177
-1.85479 0.947356 3.34897 -0.666573 -0.594576 0.449621
-1.66348 0.541346 3.0962 -0.560467 -0.593837 0.577265
-1.65978 0.59553 3.13895 -0.551915 -0.567521 0.610991
-1.69813 0.726735 3.25369 -0.538474 -0.657094 0.527517
-1.66356 0.494942 3.03757 -0.522959 -0.698496 0.488485
-1.5765 0.47587 3.1152 -0.582342 -0.680957 0.444043
-1.57356 0.529691 3.20318 -0.690582 -0.549312 0.470481
-1.56985 0.583876 3.24593 -0.796085 -0.439406 0.416138
-1.57678 0.433581 3.05125 -0.527025 -0.741342 0.415519
-1.48361 0.423983 3.15228 -0.54046 -0.751175 0.378997
-1.46315 0.457696 3.25048 -0.580016 -0.712209 0.395399
-1.46021 0.511524 3.33845 -0.622179 -0.674229 0.39788
-1.49536 0.600462 3.45061 -0.665155 -0.655132 0.358289
-1.58563 0.400431 2.97007 -0.453371 -0.809549 0.372942
-1.49245 0.390835 3.07109 -0.424568 -0.845336 0.324267
-1.39311 0.423956 3.28332 -0.466359 -0.811614 0.35184
-1.37265 0.457671 3.38152 -0.587014 -0.716386 0.377102
-1.37396 0.50998 3.47732 -0.608254 -0.697137 0.379509
-1.58803 0.369629 2.90282 -0.382283 -0.861703 0.333658
-1.50742 0.365528 2.97092 -0.357958 -0.88623 0.294047
-1.41527 0.367643 3.09466 -0.407665 -0.864922 0.29278
-1.40031 0.392948 3.19483 -0.34258 -0.889776 0.301559
-1.59505 0.345333 2.8163 -0.297495 -0.915784 0.269881
-1.51444 0.341323 2.88444 -0.288884 -0.92649 0.241167
-1.42643 0.338359 2.99638 -0.361807 -0.897124 0.253505
-1.31135 0.370899 3.26322 -0.455682 -0.823591 0.337717
-1.31732 0.41586 3.35094 -0.41413 -0.839218 0.352432
-1.5995 0.32692 2.74539 -0.241215 -0.940917 0.237678
-1.52447 0.322081 2.78258 -0.254475 -0.941457 0.221137
-1.43646 0.319034 2.89445 -0.400886 -0.886323 0.231778
-1.3225 0.341615 3.16494 -0.433311 -0.844193 0.315563
-1.60492 0.308399 2.65827 -0.240552 -0.949548 0.201229
-1.5299 0.303479 2.69539 -0.258209 -0.937699 0.232481
-1.45863 0.292208 2.75412 -0.398208 -0.886978 0.233882
-1.43366 0.302875 2.84704 -0.498565 -0.835232 0.231994
-1.3337 0.312427 3.07849 -0.500614 -0.809059 0.30791
-1.6041 0.296972 2.58606 -0.26783 -0.951418 0.15189
-1.53775 0.278788 2.59336 -0.276041 -0.943865 0.181437
-1.46648 0.267522 2.65207 -0.344302 -0.91691 0.201824
-1.38725 0.279569 2.84861 -0.413782 -0.884556 0.215276
-1.36228 0.290151 2.94148 -0.369347 -0.907823 0.198597
-1.61688 0.289009 2.51586 -0.28857 -0.952577 0.096562
-1.55053 0.27074 2.5231 -0.251109 -0.961151 0.114601
-1.6108 0.282559 2.44383 -0.307914 -0.949251 0.064123
-1.53395 0.261698 2.47116 -0.32043 -0.939161 0.123696
-1.459 0.23882 2.50859 -0.318432 -0.933297 0.166009
-1.44907 0.249449 2.58998 -0.316583 -0.935513 0.156813
-1.38554 0.257779 2.75535 -0.382951 -0.903815 0.190962
-1.35813 0.192676 2.42711 -0.366869 -0.91929 0.142524
-1.36248 0.214593 2.51975 -0.360373 -0.915035 0.181227
-1.35254 0.225228 2.60113 -0.355305 -0.92384 0.142402
-1.36812 0.239711 2.69324 -0.353859 -0.926213 0.13005
-1.35254 0.178855 2.33105 -0.375137 -0.915107 0.147824
-1.22502 0.1292 2.42025 -0.503715 -0.855159 0.122368
-1.24753 0.147325 2.49866 -0.491099 -0.863072 0.118023
-1.25187 0.169242 2.5913 -0.529094 -0.8298 0.177456
-1.26171 0.195051 2.6764 -0.478505 -0.865507 0.148093
-1.22639 0.11164 2.32647 -0.382186 -0.920909 0.0765589
-1.09364 0.061061 2.56068 -0.335105 -0.942169 -0.00473835
-1.11615 0.079097 2.63903 -0.456969 -0.87659 0.150894
-1.13842 0.10992 2.71005 -0.500592 -0.841312 0.203964
-1.14825 0.135812 2.7952 -0.542457 -0.7889 0.28875
-0.896145 0.022032 2.55048 -0.214804 -0.963145 -0.161897
-0.952262 0.022123 2.61172 -0.203659 -0.978692 -0.0261792
-0.983929 0.03359 2.68686 -0.249332 -0.949588 0.190041
-1.00619 0.064412 2.75787 -0.283769 -0.918875 0.274125
-0.803247 0.008962 2.48331 -0.158851 -0.978311 -0.132942
-0.814194 0.000593 2.56841 -0.12055 -0.992694 -0.00509737
-0.845861 0.012058 2.64355 -0.107171 -0.984322 0.14009
-0.866441 0.031135 2.72791 -0.112306 -0.960205 0.255722
-0.657184 0.01911 2.37374 -0.0147508 -0.976254 -0.216126
-0.675869 -0.000111 2.45303 -0.0695588 -0.977366 -0.199795
-0.686816 -0.008481 2.53812 -0.0908094 -0.994179 -0.0579866
-0.703071 -0.008483 2.62033 -0.107308 -0.991085 0.078968
-0.499512 0.022608 2.37428 0.0102038 -0.961159 -0.275806
-0.518198 0.003392 2.45356 -0.0204655 -0.96135 -0.274569
-0.539283 -0.019714 2.52918 -0.0416273 -0.990242 -0.132996
-0.555538 -0.019623 2.61142 -0.0525226 -0.996237 0.0689479
-0.331538 0.051209 2.27994 -0.100796 -0.937161 -0.334021
-0.352717 0.023041 2.35593 -0.103715 -0.934538 -0.340415
-0.367796 -0.000722 2.43029 -0.0973485 -0.946152 -0.308738
-0.388881 -0.023827 2.5059 -0.056209 -0.982144 -0.179537
-0.198736 0.042713 2.24145 -0.078837 -0.938607 -0.33586
-0.21426 0.01562 2.31178 -0.0900101 -0.932855 -0.348827
-0.229339 -0.00815 2.38615 -0.0575547 -0.96312 -0.262843
-0.23537 -0.024098 2.46137 -0.00773696 -0.989474 -0.144503
-0.091123 0.070783 2.16104 0.184411 -0.934218 -0.305335
-0.102384 0.045062 2.23058 0.130922 -0.939753 -0.31579
-0.117908 0.017966 2.30092 0.16783 -0.944094 -0.283758
-0.127574 -0.000582 2.37404 0.191788 -0.961106 -0.198729
-0.037665 0.080134 2.17804 0.337094 -0.864903 -0.371902
-0.048927 0.054415 2.24759 0.230597 -0.932495 -0.277991
-0.059922 0.03462 2.32127 0.240626 -0.944363 -0.224226
-0.069588 0.016073 2.3944 0.216533 -0.959851 -0.178325
-0.003058 0.11597 2.14477 0.163545 -0.956035 -0.243415
-0.010834 0.082213 2.20244 0.3746 -0.851261 -0.367462
-0.014994 0.056002 2.26444 0.256505 -0.919409 -0.298146
-0.025989 0.036207 2.33812 -0.15586 -0.944153 -0.290313
0.003058 0.11597 2.14477 -0.158852 -0.935086 -0.31683
-0.003058 0.082127 2.21059 0.187122 -0.896754 -0.401021
-0.007218 0.056001 2.27264 0.106277 -0.93326 -0.343121
0.029889 0.113896 2.12036 -0.433885 -0.852333 -0.292014
0.010834 0.082213 2.20244 -0.374604 -0.851261 -0.367459
0.003058 0.082127 2.21059 -0.18711 -0.89676 -0.401013
0.007227 0.056001 2.27264 -0.106401 -0.933287 -0.343009
-0.007218 0.024066 2.34035 -0.243394 -0.909678 -0.33652
0.079232 0.091678 2.08985 -0.289449 -0.927352 -0.237145
0.037665 0.080134 2.17804 -0.359894 -0.871334 -0.333545
0.048925 0.054415 2.24759 -0.24533 -0.92584 -0.287459
0.015003 0.055997 2.26445 -0.256553 -0.919418 -0.298081
0.072394 0.110565 2.02133 -0.329107 -0.930207 -0.162492
0.161487 0.095491 2.01744 -0.0685538 -0.985789 -0.153364
0.171288 0.084975 2.09565 -0.0115078 -0.98139 -0.191679
0.091123 0.070783 2.16104 -0.143059 -0.94941 -0.279562
0.102382 0.045057 2.23059 -0.122777 -0.936224 -0.329257
0.154552 0.107445 1.94174 -0.120366 -0.984145 -0.130269
0.291431 0.091702 2.046 -0.0565842 -0.99577 -0.0723881
0.301232 0.081181 2.12422 -0.0199479 -0.992998 -0.116439
0.315981 0.072491 2.20528 0.0470769 -0.976937 -0.208274
0.183179 0.063995 2.16679 0.0456908 -0.957181 -0.285862
0.285543 0.092543 1.96235 -0.101498 -0.992377 -0.0699049
0.41841 0.078475 1.97131 -0.11929 -0.989789 -0.0780191
0.424298 0.077633 2.05497 -0.114148 -0.99342 -0.00929113
0.4416 0.074308 2.13813 -0.0853809 -0.994554 -0.0597712
0.42024 0.092654 1.88995 -0.115153 -0.979433 -0.165681
0.54972 0.058582 1.96297 -0.101911 -0.991811 -0.0769779
0.566166 0.059859 2.04836 -0.0992237 -0.995054 0.00470803
0.583467 0.056539 2.13151 -0.0993196 -0.994846 -0.0204205
0.688824 0.049855 1.99168 0.0382392 -0.992 -0.120303
0.70527 0.051219 2.07712 -0.0494202 -0.998704 -0.0121398
0.724318 0.045762 2.15937 -0.0411527 -0.99794 -0.0492164
0.615817 0.051409 2.21279 -0.0742989 -0.99312 -0.0905151
0.456349 0.065616 2.21918 -0.0626254 -0.989205 -0.132482
0.848105 0.045259 2.14045 0.0543518 -0.992657 -0.108063
0.867153 0.039802 2.2227 0.0499618 -0.996664 -0.0645339
0.867964 0.035107 2.30703 0.0568548 -0.996004 -0.0688691
0.756667 0.040633 2.24066 -0.0369891 -0.997551 -0.0593598
1.0238 0.072501 2.07606 0.103605 -0.982744 -0.153235
1.02656 0.061384 2.16131 0.136539 -0.986719 -0.0879906
1.02737 0.056695 2.24564 0.163765 -0.9859 -0.0343876
1.02727 0.055147 2.33272 0.203149 -0.979126 -0.00658434
0.879902 0.028684 2.38955 0.0652774 -0.997577 -0.0240407
1.22545 0.112729 1.96998 0.211976 -0.970946 -0.111036
1.22032 0.103022 2.0614 0.259999 -0.964237 -0.0514541
1.22022 0.101478 2.14847 0.320432 -0.946994 0.022916
1.34103 0.156335 1.88086 0.523063 -0.840983 -0.138394
1.33591 0.146628 1.97227 0.521473 -0.851636 -0.0527465
1.34864 0.1531 2.04626 0.589787 -0.807353 0.0182312
1.21712 0.106865 2.24234 0.333338 -0.942089 0.036791
1.39166 0.208942 1.93914 0.703827 -0.70643 -0.0747307
1.40439 0.215415 2.01313 0.62135 -0.776022 -0.108235
1.34554 0.158488 2.14013 0.474663 -0.880166 0.00172384
1.39962 0.228884 1.8724 0.705242 -0.690147 -0.162267
1.45855 0.269326 1.90935 0.522432 -0.840345 -0.144514
1.46891 0.259892 1.99509 0.49533 -0.852168 -0.168693
1.42509 0.205372 2.11312 0.511678 -0.852605 -0.106067
1.53293 0.308826 1.84893 0.330094 -0.938016 -0.105662
1.53307 0.306576 1.92143 0.391088 -0.916012 -0.0892856
1.54342 0.297145 2.00716 0.398761 -0.903806 -0.155318
1.48961 0.249849 2.09508 0.496919 -0.854654 -0.150455
1.43347 0.208092 2.21021 0.448849 -0.892884 -0.035966
1.53008 0.323491 1.76373 0.275938 -0.94598 -0.170235
1.64358 0.352114 1.74876 0.253682 -0.959063 -0.125876
1.64093 0.345863 1.82318 0.293477 -0.954442 -0.0539524
1.64107 0.343527 1.89563 0.281179 -0.957819 -0.0593381
1.64148 0.337272 1.96966 0.285172 -0.951481 -0.115591
1.65108 0.366223 1.68132 0.184431 -0.967957 -0.170423
1.77082 0.395977 1.66818 0.164362 -0.985771 -0.0352348
1.76818 0.389645 1.74255 0.185971 -0.978734 -0.0865751
1.771 0.382386 1.81952 0.209389 -0.975226 -0.071343
1.77141 0.376132 1.89355 0.225647 -0.971576 -0.0715816
1.65583 0.378339 1.60973 0.0257995 -0.945029 -0.325967
1.77005 0.395597 1.59024 0.0816358 -0.993585 -0.0782656
1.85044 0.398633 1.52138 -0.320957 -0.947091 0.00234549
1.85122 0.398931 1.59927 -0.151561 -0.987259 0.0484734
1.85945 0.403984 1.67471 -0.0536916 -0.998166 0.0279686
1.7748 0.407712 1.51866 -0.0619945 -0.989651 -0.129412
1.84236 0.406737 1.45075 -0.405369 -0.913879 -0.0223828
1.88427 0.36495 1.46772 -0.48708 -0.867401 0.101831
1.90111 0.374766 1.54132 -0.396612 -0.911067 0.112498
1.90934 0.379825 1.61676 -0.239748 -0.954517 0.177249
1.76511 0.411152 1.4421 -0.141135 -0.983091 -0.116677
1.83267 0.410092 1.37414 -0.29654 -0.925223 -0.236701
1.87618 0.373049 1.39709 -0.648237 -0.751997 -0.119544
1.93117 0.334755 1.36422 -0.483302 -0.875141 0.0234159
1.81919 0.433354 1.30084 0.00983121 -0.989932 -0.141205
1.87003 0.41583 1.3378 -0.51384 -0.795843 -0.320315
1.92036 0.393833 1.2301 -0.736894 -0.642779 -0.209338
1.92652 0.351051 1.2894 -0.703942 -0.676847 -0.215276
1.79441 0.430865 1.22576 0.27621 -0.931744 -0.235715
1.85655 0.439092 1.2645 -0.283468 -0.922398 -0.26235
1.90726 0.422203 1.15736 -0.792068 -0.57329 -0.209684
1.98696 0.346454 1.04956 -0.587609 -0.799014 -0.127645
1.9973 0.330459 1.13187 -0.484672 -0.864336 -0.134225
1.77727 0.448527 1.15856 0.422272 -0.8665 -0.266203
1.8535 0.482551 1.20203 -0.18739 -0.883592 -0.429126
1.90421 0.465661 1.09488 -0.756166 -0.637205 -0.148939
1.97386 0.374826 0.976819 -0.621314 -0.782562 -0.0395699
2.04494 0.342123 0.90966 -0.0715123 -0.991567 -0.108076
1.83637 0.500213 1.13484 0.0306055 -0.952491 -0.303024
1.88128 0.493808 1.02394 -0.756631 -0.648825 -0.0808453
1.93569 0.390765 0.900612 -0.651428 -0.757784 0.0374919
1.98702 0.367937 0.75095 -0.327691 -0.940371 -0.0912207
2.02519 0.351912 0.827106 -0.189255 -0.979172 -0.0735147
1.82411 0.52969 1.06819 -0.0578216 -0.907299 -0.416492
1.95867 0.386642 0.672753 -0.371384 -0.92159 -0.112893
2.05472 0.382269 0.629927 0.065554 -0.977113 -0.202366
2.07224 0.36711 0.717184 0.116856 -0.977633 -0.174868
2.092 0.357321 0.799737 0.323412 -0.944409 -0.0591275
2.0973 0.364427 0.890429 0.464803 -0.884773 -0.0336758
2.05528 0.326128 0.991967 0.128093 -0.985761 -0.108941
2.08196 0.418871 0.48953 0.407847 -0.873923 -0.264424
2.11199 0.414984 0.555663 0.452122 -0.842762 -0.292126
2.12951 0.399825 0.642919 0.387981 -0.897008 -0.211774
2.13558 0.38581 0.72019 0.454304 -0.884833 -0.10334
2.14615 0.466202 0.52235 0.629181 -0.65078 -0.424989
2.19668 0.44916 0.604469 0.572982 -0.750098 -0.330219
2.20274 0.43506 0.68169 0.580376 -0.805838 -0.117426
2.14088 0.392917 0.810883 0.573695 -0.819015 0.0093976
2.10104 0.361741 0.977082 0.600432 -0.799358 -0.0225296
2.19285 0.51342 0.515567 0.613053 -0.568272 -0.548847
2.24338 0.496376 0.597685 0.680611 -0.579277 -0.44856
2.28997 0.514976 0.652872 0.707388 -0.625578 -0.32902
2.23818 0.459144 0.727577 0.592941 -0.80241 -0.0675213
2.17632 0.417 0.85677 0.561185 -0.827685 -0.00306734
2.28732 0.572307 0.59577 0.741811 -0.45929 -0.488639
2.33391 0.590818 0.650907 0.779893 -0.436275 -0.448811
2.35739 0.555668 0.72119 0.782201 -0.553962 -0.285109
2.3056 0.499835 0.795894 0.616967 -0.78481 -0.0585181
2.3564 0.636682 0.641869 0.759233 -0.503021 -0.412959
2.36268 0.60947 0.695201 0.851453 -0.376784 -0.364775
2.40264 0.642146 0.761807 0.836375 -0.468896 -0.283925
2.39735 0.588344 0.787796 0.87413 -0.460995 -0.152907
2.38517 0.655248 0.686114 0.781124 -0.571727 -0.250944
2.41327 0.679275 0.713097 0.753124 -0.608838 -0.24924
2.4371 0.665621 0.797747 0.789215 -0.59173 -0.164303
2.41924 0.62912 0.887168 0.835089 -0.550095 0.0046775
2.42472 0.70048 0.684769 0.799056 -0.522985 -0.296641
2.44773 0.702749 0.749038 0.814101 -0.523923 -0.250488
2.4608 0.703778 0.825056 0.890907 -0.450235 -0.0597797
2.47306 0.737895 0.783762 0.903579 -0.409227 -0.126798
2.48104 0.747248 0.863964 0.914526 -0.403579 -0.0276885
2.44294 0.667191 0.914427 0.869972 -0.49307 -0.00555513
2.45262 0.684514 0.975823 0.861075 -0.507469 0.03202
2.3602 0.564961 1.02569 0.768668 -0.635541 0.0723629
2.39861 0.638763 1.21626 0.805622 -0.5874 0.0770369
2.38231 0.600476 1.11978 0.789314 -0.609268 0.0759963
2.25227 0.468723 1.25478 0.698229 -0.713451 0.0588555
2.22755 0.443112 1.16914 0.65457 -0.755285 0.0329122
2.33831 0.524184 0.926321 0.719688 -0.693494 0.0334011
2.42046 0.677095 1.30547 0.828536 -0.554345 0.0789334
2.30903 0.550103 1.42763 0.750774 -0.655896 0.0783519
2.27437 0.504326 1.34892 0.731443 -0.67743 0.0779699
2.16102 0.400339 1.41963 0.648016 -0.757781 0.0764341
2.33088 0.588434 1.51684 0.757616 -0.648607 0.0729866
2.22441 0.481562 1.57934 0.694352 -0.708428 0.12651
2.18975 0.4357 1.50058 0.67295 -0.732255 0.104599
2.36209 0.629195 1.59564 0.781334 -0.619837 0.072931
2.28026 0.562414 1.73771 0.692251 -0.701816 0.168054
2.24905 0.521653 1.65891 0.687522 -0.71591 0.121601
2.14602 0.429243 1.66256 0.598414 -0.77815 0.190744
2.12043 0.391848 1.58513 0.5609 -0.810215 0.170125
2.44107 0.741639 1.49588 0.858054 -0.509507 0.0643884
2.37651 0.663807 1.68489 0.810918 -0.571291 0.126642
2.28961 0.596452 1.82015 0.691577 -0.69423 0.199415
2.17756 0.505198 1.82421 0.626008 -0.737496 0.253404
2.17066 0.469328 1.74214 0.614265 -0.75993 0.212565
2.45187 0.773462 1.59656 0.874339 -0.47292 0.108989
2.37738 0.689146 1.775 0.824266 -0.540742 0.167879
2.29048 0.621709 1.9102 0.687285 -0.679971 0.255495
2.18691 0.539241 1.90664 0.616385 -0.74181 0.264171
2.10576 0.47921 1.92562 0.564836 -0.78536 0.253315
2.5209 0.910411 1.57756 0.90282 -0.421401 0.0856562
2.45124 0.806408 1.69129 0.875849 -0.46505 0.128908
2.37676 0.722098 1.86973 0.839628 -0.462381 0.285005
2.28774 0.657035 1.99442 0.726418 -0.57156 0.381623
2.19008 0.578291 1.98821 0.623762 -0.714053 0.317883
2.52867 0.942755 1.67753 0.912805 -0.396344 0.0984824
2.45901 0.838753 1.79127 0.858049 -0.484414 0.17057
2.35716 0.768187 1.95149 0.819581 -0.469273 0.32874
2.26814 0.703124 2.07619 0.753854 -0.559826 0.343947
2.18734 0.613617 2.07242 0.667351 -0.684937 0.292412
2.57475 1.08248 1.66552 0.950545 -0.295178 0.0966118
2.57155 1.11526 1.79054 0.944891 -0.30605 0.116247
2.52548 0.975537 1.80256 0.914342 -0.372792 0.158128
2.45238 0.870138 1.88291 0.830781 -0.50723 0.229174
2.35053 0.799572 2.04313 0.770175 -0.596041 0.227081
2.59824 1.09167 1.44121 0.950668 -0.246942 0.187751
2.60356 1.16593 1.62819 0.958696 -0.274437 0.0747358
2.62389 1.22028 1.49886 0.951311 -0.279535 0.129874
2.64445 1.30412 1.55343 0.939656 -0.326798 0.101239
2.62411 1.24978 1.68276 0.954808 -0.291124 0.0599066
2.64442 1.24894 1.44861 0.814674 -0.398533 0.421281
2.66485 1.33239 1.50287 0.812294 -0.468549 0.347333
2.68044 1.42697 1.65945 0.904838 -0.42075 0.0651016
2.67129 1.41559 1.73735 0.915336 -0.397523 0.0643014
2.61496 1.2384 1.76067 0.948755 -0.301931 0.093284
2.70609 1.36395 1.48141 0.791247 -0.472594 0.388049
2.70084 1.45524 1.60889 0.870726 -0.459734 0.174591
2.78395 1.59133 1.59757 0.787807 -0.605392 0.113405
2.67396 1.43038 1.80435 0.919037 -0.390839 0.0511513
2.60791 1.25902 1.86534 0.939973 -0.329719 0.0879526
2.74541 1.52447 1.57417 0.864816 -0.467209 0.183871
2.90461 1.70028 1.54007 0.866201 -0.499645 0.00711979
2.87939 1.69471 1.66272 0.793177 -0.58475 0.170111
2.75873 1.58567 1.72017 0.831363 -0.534576 0.151868
2.69898 1.49683 1.84245 0.910648 -0.407222 0.069928
2.96054 1.88031 1.66985 0.99253 -0.119298 -0.0255294
2.92564 1.84141 1.81123 0.891443 -0.40446 0.204307
2.78036 1.65231 1.87676 0.844401 -0.508476 0.168641
2.72062 1.56338 1.99899 0.922727 -0.380864 0.0593083
2.97736 2.1481 2.00502 0.959823 -0.24875 0.129861
2.94247 2.1092 2.14639 0.951548 -0.269409 0.148241
2.90194 2.0281 2.26247 0.92428 -0.348229 0.156342
2.82662 1.79901 2.02526 0.855891 -0.478772 0.195521
3.01987 2.36333 2.07983 0.987932 -0.144265 0.0563761
3.00149 2.35754 2.22905 0.965788 -0.230895 0.118072
2.97441 2.31554 2.36321 0.958536 -0.251 0.134936
2.93387 2.23443 2.47928 0.944679 -0.282818 0.166119
2.83818 1.92807 2.39191 0.920875 -0.365786 0.134867
3.02077 2.3673 1.93415 0.993387 0.0078276 -0.114545
3.02802 2.51664 2.20689 0.994751 -0.0950307 0.037931
3.01751 2.4999 2.34988 0.982252 -0.157549 0.101779
2.99042 2.45789 2.48404 0.965403 -0.206231 0.159581
2.9537 2.39974 2.60716 0.950701 -0.233574 0.203986
2.99255 2.32319 1.78795 0.987705 -0.0415422 -0.15071
3.02892 2.52052 2.06117 0.996525 -0.0829995 -0.00695802
3.05121 2.75296 2.22377 0.995407 -0.0916072 0.0277883
3.03966 2.71913 2.35896 0.992703 -0.102171 0.0640396
3.02916 2.70248 2.502 0.987232 -0.116406 0.108735
2.97632 2.33456 1.65087 0.977253 -0.0384652 -0.208559
3.03153 2.54161 1.91944 0.992019 -0.11236 -0.0572146
3.05381 2.77414 2.08209 0.996481 -0.0836835 -0.00470311
3.06812 3.01108 2.40629 0.99495 -0.0870433 0.0499732
3.05657 2.97725 2.54149 0.987999 -0.114326 0.103863
3.01529 2.55297 1.78236 0.986964 -0.113999 -0.113608
3.0561 2.83204 1.959 0.996103 -0.0805939 -0.0358342
3.0788 3.08234 2.28906 0.997438 -0.0693568 0.017529
3.08929 3.3725 2.4613 0.998344 -0.0408288 0.0405364
3.07861 3.30131 2.57859 0.995042 -0.0575339 0.0811209
3.05736 2.90192 1.83917 0.995429 -0.0615048 -0.07306
3.08109 3.14025 2.16597 0.99878 -0.0406927 -0.0279831
3.09356 3.44468 2.33028 0.999765 -0.0170492 -0.0134014
3.09161 3.65564 2.60148 0.995939 0.0306326 0.0846603
3.07773 3.62876 2.73184 0.992443 0.0296511 0.119072
3.05017 2.98744 1.73523 0.989288 -0.0302723 -0.142806
3.07647 3.21742 2.04991 0.997946 -0.0121458 -0.0629032
3.08895 3.52185 2.21422 0.998469 0.000277825 -0.0553154
3.09588 3.72791 2.47051 0.997352 0.0638767 0.0347733
3.03994 3.10766 1.65941 0.985201 -0.00453093 -0.171341
3.06928 3.30294 1.94597 0.995333 0.0101293 -0.0959642
3.0787 3.58771 2.08074 0.995121 0.0150615 -0.0975044
3.09204 3.80515 2.29671 0.996835 0.0784467 -0.0128625
3.02043 3.20382 1.55945 0.976201 0.0156533 -0.2163
3.0531 3.37906 1.83273 0.990054 0.0351806 -0.136217
3.06252 3.66391 1.96755 0.990079 0.0307592 -0.137101
3.0818 3.8711 2.16328 0.993671 0.095148 -0.0597099
2.99258 3.29926 1.45715 0.970068 0.0238696 -0.241657
3.03359 3.47522 1.73278 0.984992 0.0476094 -0.165905
3.04323 3.74227 1.86023 0.98532 0.0411864 -0.165676
3.06565 3.93467 2.04759 0.990221 0.104877 -0.0919981
2.93487 3.01725 1.2846 0.941673 -0.0671375 -0.329764
2.96473 3.39302 1.35695 0.962349 0.0396591 -0.26891
3.01117 3.57084 1.63576 0.979717 0.056274 -0.192322
3.0208 3.83789 1.76322 0.981362 0.047918 -0.186099
3.04636 4.01302 1.94028 0.986886 0.115689 -0.112569
2.90994 3.12542 1.19425 0.939049 -0.0476501 -0.340464
2.92822 3.48207 1.25391 0.95939 0.0344006 -0.279978
2.98331 3.6646 1.53557 0.975552 0.055204 -0.212723
2.99674 3.92558 1.66294 0.97917 0.047794 -0.197338
3.02354 4.08959 1.83506 0.984495 0.117468 -0.130275
2.87343 3.21447 1.09121 0.935428 -0.0378803 -0.351482
2.89598 3.56679 1.14817 0.952969 0.0394309 -0.300492
2.95881 3.75803 1.43673 0.97358 0.0470454 -0.223447
2.97224 4.01901 1.5641 0.978491 0.0493955 -0.200288
2.99948 4.17727 1.73478 0.98259 0.121483 -0.140567
2.84357 3.31723 0.997228 0.93432 -0.0300914 -0.355161
2.85327 3.64454 1.03711 0.95085 0.0234604 -0.308761
2.92656 3.84275 1.33099 0.969922 0.0374312 -0.240523
2.9469 4.10375 1.46152 0.978436 0.0449607 -0.201595
2.9735 4.26459 1.63814 0.98167 0.126259 -0.142764
2.80086 3.39498 0.886163 0.924 -0.0217662 -0.381773
2.81888 3.72601 0.929804 0.939823 0.0219247 -0.340958
2.90137 3.92205 1.22085 0.969124 0.0179812 -0.245919
2.92172 4.18305 1.35138 0.978142 0.0438218 -0.203266
2.94816 4.34934 1.53556 0.98211 0.125763 -0.140157
2.86699 4.00351 1.11354 0.961796 0.0128639 -0.273463
2.89466 4.25686 1.24234 0.975437 0.0416533 -0.216304
2.92278 4.42895 1.43246 0.979885 0.13416 -0.147738
2.88307 4.67932 1.54261 0.961676 0.264774 -0.0712351
2.90846 4.59979 1.64576 0.967398 0.248919 -0.0467011
2.86733 4.33374 1.13038 0.971432 0.0498883 -0.232014
2.89572 4.50276 1.32343 0.975306 0.151458 -0.160747
2.85403 4.73817 1.43067 0.953931 0.281099 -0.104879
2.8077 4.92047 1.67653 0.931559 0.363585 0.0020652
2.82123 4.86942 1.79256 0.933956 0.355987 0.031622
2.8645 4.56131 1.20821 0.968644 0.165196 -0.185577
2.8228 4.79673 1.31545 0.937833 0.320255 -0.133815
2.77865 4.97932 1.56459 0.900078 0.42536 -0.0944897
2.66938 5.20707 1.70372 0.861152 0.50567 -0.0521084
2.68816 5.16972 1.81502 0.881064 0.469688 0.0558559
2.78712 4.84956 1.20634 0.927483 0.345742 -0.142255
2.73246 5.02505 1.45579 0.880609 0.457721 -0.122556
2.62319 5.25279 1.59493 0.8607 0.503054 -0.0783006
2.69677 5.07788 1.34668 0.906637 0.417358 -0.0618144
2.59562 5.29916 1.50761 0.888302 0.459158 -0.00966126
2.49325 5.47997 1.76125 0.828482 0.5588 0.0368802
2.50869 5.45074 1.83768 0.816103 0.575279 0.0550381
2.52747 5.41347 1.94903 0.818354 0.566771 0.0952226
2.66976 5.13291 1.25057 0.916567 0.396717 -0.0501943
2.5686 5.35419 1.4115 0.895084 0.445878 -0.00409296
2.45205 5.57126 1.60493 0.855363 0.510268 0.0893337
2.46568 5.52634 1.67394 0.855636 0.511427 0.0795583
2.53978 5.40978 1.32602 0.891634 0.452755 0.00138334
2.42323 5.62676 1.5194 0.820668 0.571308 0.0105456
2.22626 5.84969 1.68367 0.715355 0.696712 0.0534761
2.30465 5.76602 1.73179 0.768168 0.633483 0.0928311
2.31828 5.7211 1.80079 0.784566 0.580301 0.21842
2.38425 5.67106 1.43747 0.80256 0.596463 -0.0113856
2.18727 5.894 1.60173 0.707731 0.703387 0.0660502
1.92192 6.12256 1.69465 0.603293 0.792438 0.0898832
1.98527 6.0613 1.81496 0.630317 0.760334 0.156816
2.06366 5.97762 1.86309 0.680932 0.711282 0.174382
2.45255 5.55625 1.13032 0.834792 0.542952 -0.0912464
2.32895 5.74736 1.34111 0.796858 0.604132 0.0064982
2.19092 5.90505 1.48339 0.73271 0.676171 0.0769918
2.25966 5.83674 1.19491 0.771762 0.634502 -0.0423199
2.12164 5.99442 1.33719 0.699671 0.714289 0.0158527
1.92557 6.13361 1.57631 0.622918 0.775771 0.100762
1.58307 6.34482 1.72328 0.494798 0.857881 0.138622
1.65687 6.28328 1.83928 0.508842 0.848622 0.144637
2.37255 5.63181 0.907443 0.837481 0.532479 -0.12285
2.23624 5.85057 1.06815 0.775208 0.626154 -0.0835615
2.02499 6.07968 1.26831 0.651464 0.758672 -0.0033258
1.82892 6.21878 1.50738 0.580012 0.80809 0.102846
2.3171 5.68751 0.806972 0.804445 0.57095 -0.163963
2.24643 5.76772 0.768239 0.7804 0.604823 -0.158636
2.16557 5.93087 1.02946 0.734497 0.674131 -0.0778547
1.93897 6.14683 1.14961 0.635689 0.771607 -0.0228731
1.74926 6.28213 1.38726 0.565457 0.822407 0.0624813
2.18471 5.82591 0.672854 0.771632 0.615361 -0.160982
2.07956 5.99811 0.910802 0.711352 0.694328 -0.10903
1.84073 6.22417 1.02166 0.635503 0.771967 -0.0142103
2.09022 5.90723 0.568006 0.747037 0.642696 -0.169937
1.98507 6.07943 0.805954 0.701737 0.704546 -0.10574
1.70047 6.33976 0.889051 0.602793 0.797458 -0.026489
1.54913 6.43287 1.13137 0.529964 0.84682 0.0450993
1.65102 6.35946 1.25932 0.558933 0.827692 0.0501974
2.02026 5.96716 0.478801 0.746139 0.647236 -0.156082
1.84481 6.19502 0.673343 0.672512 0.731975 -0.109273
1.56641 6.42612 0.776263 0.551043 0.833121 -0.0475507
1.97917 5.98423 0.353645 0.753089 0.635215 -0.171343
1.80372 6.21208 0.548196 0.67623 0.724477 -0.133586
1.90528 6.04599 0.268878 0.707469 0.675386 -0.208185
1.8027 6.13603 0.252724 0.664243 0.717764 -0.208796
1.70115 6.30212 0.532041 0.628295 0.7681 -0.123566
1.97283 5.91634 0.133034 0.760599 0.589064 -0.272934
1.89152 5.97653 0.048988 0.722804 0.620963 -0.303247
1.71826 6.19427 0.17425 0.637824 0.737143 -0.223161
1.55972 6.38729 0.440731 0.576227 0.800299 -0.165785
1.42498 6.51129 0.684952 0.502546 0.863928 -0.0327935
1.84166 5.9073 -0.148702 0.700996 0.559618 -0.442078
1.80708 6.03477 -0.029486 0.691803 0.63848 -0.337271
1.71078 6.09582 -0.096035 0.640532 0.668867 -0.377274
1.61436 6.25035 0.099903 0.591625 0.767005 -0.248361
1.74535 5.96835 -0.215251 0.652593 0.582886 -0.484114
1.63947 6.03127 -0.271635 0.58603 0.608977 -0.534524
1.60914 6.16113 -0.145152 0.588265 0.696561 -0.410788
1.51273 6.31567 0.050778 0.556136 0.795907 -0.23926
1.66853 5.92133 -0.356413 0.58496 0.548362 -0.597596
1.53006 6.08995 -0.313864 0.51805 0.632289 -0.576052
1.49973 6.2198 -0.187381 0.504857 0.729962 -0.460733
1.44807 6.32948 -0.029744 0.486299 0.810333 -0.326916
1.34707 6.48501 0.323472 0.434776 0.870944 -0.228966
1.5802 5.88425 -0.457982 0.508504 0.520305 -0.68608
1.55406 5.9805 -0.404688 0.507557 0.564844 -0.650643
1.41123 6.15387 -0.342177 0.429292 0.666181 -0.609845
1.38259 6.26348 -0.226426 0.412512 0.760641 -0.501257
1.33093 6.37315 -0.068788 0.368896 0.852819 -0.369614
1.5864 5.73574 -0.567952 0.526086 0.518095 -0.674397
1.4557 5.94005 -0.496631 0.427738 0.539782 -0.725035
1.43523 6.04441 -0.432993 0.433227 0.584038 -0.68645
1.28798 6.19373 -0.374023 0.358962 0.692118 -0.626194
1.25934 6.30343 -0.25822 0.30526 0.801726 -0.513861
1.44985 5.60658 -0.768845 0.48268 0.545301 -0.685323
1.4619 5.79162 -0.606549 0.449183 0.561326 -0.695088
1.33366 5.99449 -0.521319 0.373692 0.559552 -0.739768
1.31319 6.09876 -0.457732 0.368104 0.608093 -0.703365
1.15742 6.23121 -0.400348 0.255656 0.726888 -0.637395
1.44808 5.44719 -0.897173 0.510311 0.543693 -0.666319
1.32284 5.6734 -0.794788 0.426016 0.582979 -0.691842
1.33489 5.85845 -0.632493 0.40463 0.588736 -0.69976
1.20237 6.05825 -0.532572 0.295362 0.578077 -0.76065
1.18264 6.13625 -0.484056 0.282958 0.621704 -0.730355
1.33258 5.38391 -1.03137 0.458855 0.520082 -0.720393
1.32162 5.51597 -0.931708 0.454826 0.579427 -0.676312
1.19309 5.74158 -0.811476 0.347673 0.616529 -0.70641
1.2036 5.92221 -0.643737 0.325352 0.619168 -0.714687
1.06634 6.09804 -0.546688 0.240416 0.595091 -0.766855
1.50598 5.18236 -1.06228 0.482678 0.493962 -0.723204
1.30942 5.2666 -1.11779 0.390946 0.457269 -0.798791
1.20078 5.45425 -1.0632 0.395662 0.555692 -0.731203
1.19188 5.58415 -0.948395 0.375159 0.62079 -0.688386
1.05597 5.78718 -0.829051 0.263708 0.649597 -0.713079
1.33486 5.16617 -1.16584 0.341677 0.42085 -0.840323
1.06543 5.24125 -1.21968 0.299315 0.33008 -0.895242
1.55249 4.99254 -1.1583 0.409704 0.457924 -0.788954
1.31379 5.08385 -1.20386 0.294403 0.368036 -0.881973
1.52869 4.93441 -1.19322 0.316268 0.411183 -0.854929
1.28999 5.02564 -1.23883 0.238531 0.295858 -0.924971
1.06721 5.0593 -1.27034 0.184419 0.161831 -0.969433
1.69867 4.78061 -1.20703 0.265382 0.21928 -0.938876
1.49433 4.89358 -1.22729 0.236548 0.256727 -0.937089
1.29489 4.96095 -1.25018 0.15758 0.131234 -0.978747
1.07212 4.99461 -1.28169 0.150994 0.0642519 -0.986444
0.934992 4.94724 -1.30044 0.196123 -0.414098 -0.888852
1.6663 4.75043 -1.21235 -0.170863 -0.462853 -0.869812
1.47527 4.84858 -1.23336 -0.100133 -0.47664 -0.873377
1.27583 4.91587 -1.2563 0.0200935 -0.42907 -0.903048
1.08456 4.94607 -1.27621 0.0707411 -0.499102 -0.863651
1.82612 4.63246 -1.18482 -0.216228 -0.421606 -0.880621
1.81028 4.61436 -1.13367 -0.650008 -0.734426 -0.195213
1.65664 4.72463 -1.14746 -0.476344 -0.858849 -0.188348
1.46561 4.82287 -1.16843 -0.336567 -0.898871 -0.280631
1.26974 4.87952 -1.20094 -0.13413 -0.919311 -0.369967
1.92484 4.48456 -1.11024 -0.763068 -0.584121 -0.276639
1.91864 4.47097 -1.01092 -0.775277 -0.486853 -0.402392
1.83478 4.60951 -0.994476 -0.702383 -0.626311 -0.33822
1.68114 4.71987 -1.00823 -0.422589 -0.841157 -0.337451
1.43923 4.81291 -1.04616 -0.247781 -0.878049 -0.409433
1.98546 4.35791 -1.00529 -0.839535 -0.27239 -0.47009
1.74769 4.29554 -0.775666 -0.677963 -0.0829774 -0.730397
1.66383 4.43409 -0.759232 -0.502433 -0.411924 -0.760183
1.5848 4.54907 -0.799193 -0.260257 -0.614766 -0.744533
1.73801 4.16008 -0.797641 -0.689331 0.0912442 -0.718677
1.34224 3.96063 -0.422972 -0.709361 0.178332 -0.681912
1.31292 4.05995 -0.369198 -0.558391 -0.196083 -0.806071
1.2339 4.17485 -0.409218 0.3591 -0.757839 -0.544726
1.33256 3.82517 -0.444947 -0.67465 0.424733 -0.603696
1.06559 3.68669 -0.279894 -0.326294 0.597408 -0.732555
1.12487 3.77227 -0.232133 -0.468155 0.519229 -0.715005
1.09555 3.87159 -0.178358 0.221535 -0.200561 -0.954305
1.19592 4.12414 -0.451392 0.413237 -0.697956 -0.584887
1.25245 3.70489 -0.517631 -0.625407 0.508854 -0.591552
0.985481 3.56642 -0.352577 -0.308117 0.7636 -0.567432
0.871163 3.69651 -0.286106 0.0719273 0.458941 -0.88555
0.839349 3.77385 -0.251464 0.581297 0.242737 -0.776642
1.03377 3.76403 -0.245252 0.077416 0.391376 -0.916969
1.26446 3.5853 -0.576089 -0.561306 0.338549 -0.755195
0.928646 3.53155 -0.376982 -0.109366 0.598536 -0.793595
0.814329 3.66164 -0.310509 0.671868 0.357362 -0.648758
1.32136 3.47721 -0.677476 -0.535059 0.421699 -0.732039
1.043 3.33197 -0.54971 -0.121252 0.782648 -0.610541
0.986104 3.43997 -0.448364 -0.223074 0.575776 -0.786587
0.852539 3.53944 -0.380047 0.588592 0.61112 -0.529237
0.821278 3.60439 -0.345361 0.684352 0.512137 -0.519016
1.34655 3.34276 -0.768394 -0.471292 0.649683 -0.596487
1.09483 3.2719 -0.671261 -0.0538216 0.923937 -0.378739
0.955696 3.37117 -0.540198 0.572719 0.758127 -0.311829
0.909997 3.44794 -0.45138 0.516243 0.725989 -0.454348
1.41999 3.30677 -0.932065 -0.388224 0.859462 -0.332575
1.16827 3.23591 -0.834932 0.0315517 0.992507 -0.118042
1.03005 3.29611 -0.776992 0.506809 0.861345 0.0350618
1.00753 3.3111 -0.661758 0.56267 0.817539 -0.122609
0.806855 3.56984 -0.807711 0.884405 0.447961 -0.130988
1.41563 3.25271 -1.08502 -0.202463 0.977719 -0.0554406
1.21245 3.24989 -1.03014 0.280125 0.94657 0.159798
1.1716 3.24768 -0.926706 0.409472 0.893231 0.185664
1.43534 3.28172 -1.26487 -0.116243 0.985672 0.122221
1.23216 3.2789 -1.20999 0.297731 0.940707 0.162561
1.12365 3.35118 -1.21599 0.509116 0.847316 0.151184
1.09283 3.34785 -1.08122 0.513307 0.839191 0.179651
1.05197 3.34555 -0.977836 0.392107 0.86885 0.302245
1.39002 3.28857 -1.38413 0.00897914 0.980383 0.196899
1.23927 3.29413 -1.31657 0.313813 0.929036 0.195992
1.13075 3.36642 -1.32257 0.512054 0.844147 0.158798
1.11887 3.39705 -1.45464 0.421399 0.900394 0.108227
1.01918 3.43216 -1.38745 0.430606 0.896281 0.106105
1.34359 3.3214 -1.449 0.135 0.962923 0.23357
1.19284 3.32696 -1.38142 0.532203 0.813873 0.233175
1.15402 3.36187 -1.3727 0.528251 0.826333 0.195258
1.14214 3.39251 -1.50476 0.273871 0.956796 0.0976515
1.27698 3.33323 -1.50369 0.379779 0.881281 0.281268
1.23816 3.36814 -1.49496 0.46431 0.833696 0.298943
1.25705 3.37972 -1.68482 0.218195 0.955603 0.198023
1.09957 3.413 -1.67886 0.317427 0.929034 0.190097
0.999874 3.44811 -1.61167 0.465706 0.87811 0.109729
0.969968 3.5092 -1.77767 0.467253 0.778559 0.418951
0.863759 3.53291 -1.58534 0.517353 0.841872 0.153613
0.988359 3.42883 -1.25268 0.455706 0.881631 0.122713
0.925856 3.45071 -1.17737 0.318525 0.916563 0.241773
0.833852 3.59399 -1.75135 0.563096 0.732523 0.382535
0.801256 3.55478 -1.51003 0.523123 0.840922 0.138537
0.907259 3.41294 -1.06835 0.42178 0.880007 0.218378
1.03338 3.30779 -0.868825 0.457277 0.866899 0.198452
0.858799 3.44275 -0.997782 0.646696 0.760813 0.0542887
0.836276 3.45774 -0.882547 0.788437 0.598745 -0.140963
0.67774 3.63249 -1.42123 0.699861 0.710048 0.0776311
0.569798 3.83247 -1.3092 0.943311 0.192645 -0.270283
0.6201 4.04521 -1.17587 0.959146 0.0731005 -0.273306
0.761156 3.64662 -0.718893 0.934319 0.346447 -0.0838027
0.76866 3.74322 -0.619611 0.962712 0.260601 -0.0726095
0.7374 3.80817 -0.584916 0.970592 0.234355 -0.0550305
0.74215 3.87974 -0.541678 0.983727 0.1076 -0.14389
0.627604 4.1418 -1.07658 0.97003 0.0535131 -0.237019
0.654169 4.28647 -0.963151 0.96326 -0.0876276 -0.253871
0.68488 4.37231 -0.931225 0.921715 -0.217365 -0.321239
0.735201 3.93699 -0.506827 0.969757 -0.00188808 -0.244065
0.713711 4.4393 -0.891461 0.794623 -0.407201 -0.450291
0.764032 4.00398 -0.467072 0.945572 -0.0942645 -0.311459
0.848985 3.8722 -0.214011 0.62404 0.269643 -0.733394
0.966475 3.81264 -0.233652 -0.0997424 0.132629 -0.986134
0.787411 4.51721 -0.888613 0.721344 -0.515995 -0.461965
0.773668 4.10225 -0.429669 0.910142 -0.222538 -0.349453
0.826991 4.17847 -0.409485 0.842975 -0.380263 -0.380516
0.840212 3.94172 -0.18242 0.774758 0.225008 -0.590865
0.858422 4.81498 -1.15075 0.5173 -0.722629 -0.458485
0.840733 4.59343 -0.868419 0.647954 -0.597957 -0.471808
0.928875 4.63847 -0.852437 0.262761 -0.750193 -0.606768
0.867609 4.24338 -0.363923 0.541322 -0.633498 -0.552856
0.88083 4.00672 -0.136817 0.0900021 -0.220771 -0.971164
0.944245 4.89859 -1.23938 0.249841 -0.820847 -0.513605
0.946564 4.86002 -1.13477 0.301342 -0.837809 -0.455269
1.07847 4.90973 -1.22087 0.0153075 -0.887378 -0.460789
1.08079 4.87115 -1.11625 0.0744267 -0.883695 -0.462108
1.02178 4.6337 -0.842966 0.0797526 -0.770377 -0.632581
0.960515 4.23869 -0.354402 -0.424609 -0.562054 -0.70979
0.957702 3.88216 -0.202061 -0.572487 0.197845 -0.795686
1.24336 4.86956 -1.07869 -0.0533823 -0.917012 -0.39527
1.18436 4.63201 -0.805442 -0.0252765 -0.704625 -0.709129
1.03739 4.11413 -0.419655 -0.530826 -0.3916 -0.751581
1.34289 4.64202 -0.837188 -0.117168 -0.675489 -0.728002
1.05757 3.82089 -0.220541 0.354544 -0.0249305 -0.934707
1.06648 5.96789 -0.661263 0.264126 0.64191 -0.719853
0.927575 6.13356 -0.558203 0.151563 0.652038 -0.742883
1.04661 6.17613 -0.498132 0.213248 0.662049 -0.718482
0.90974 6.19394 -0.504984 0.116691 0.707369 -0.697146
0.888864 6.26743 -0.428478 0.102982 0.770998 -0.628456
1.02573 6.2497 -0.421567 0.176562 0.757605 -0.628379
1.1318 6.31711 -0.291521 0.210692 0.832102 -0.513045
0.752642 6.27348 -0.439145 0.0631153 0.78146 -0.620755
0.868635 6.33987 -0.329947 0.0882681 0.840034 -0.535306
1.0001 6.33551 -0.31279 0.155417 0.835658 -0.526803
1.09517 6.43098 -0.085945 0.210194 0.883545 -0.418528
1.22271 6.41721 -0.052703 0.262854 0.886367 -0.38113
0.732413 6.34592 -0.340615 0.0707171 0.829502 -0.554008
0.837548 6.44609 -0.14733 0.113305 0.866333 -0.486445
0.969017 6.44173 -0.130172 0.16837 0.877295 -0.44945
1.05477 6.5639 0.200029 0.253569 0.915079 -0.313582
0.600179 6.34797 -0.350374 0.0550388 0.81839 -0.572021
0.579928 6.44836 -0.194862 0.0769101 0.841008 -0.535528
